NCOLS         373
NROWS         32
XLLCORNER     343059.832833
YLLCORNER     4716801.73334
CELLSIZE      5.0
NODATA_VALUE  -9999.0
1821.79 1820.77 1824.27 1828.61 1831.16 1833.7 1836.25 1838.8 1841.34 1843.89 1846.76 1849.64 1852.89 1856.33 1859.58 1862.42 1865.2 1867.98 1870.76 1873.53 1876.31 1879.1 1881.99 1884.88 1887.32 1890.12 1893.28 1896.5 1899.72 1902.94 1906.14 1909.33 1912.52 1914.84 1917.12 1919.22 1921.08 1923.07 1925.05 1927.17 1929.79 1932.96 1936.57 1940.41 1944.25 1948.09 1951.93 1955.77 1959.61 1963.33 1967.06 1971.66 1976.1 1980.53 1983.84 1987.52 1984.9 1981.8 1979.08 1979.12 1982.03 1980.55 1978.96 1977.25 1975.54 1974.88 1975.85 1976.81 1978.03 1979.28 1980.09 1980.74 1982.31 1984.05 1985.74 1987.43 1989.11 1990.79 1992.76 1994.88 1997.99 2001.16 2004.38 2007.49 2010.32 2011.28 2010.52 2010.11 2008.96 2009.17 2008.89 2008.78 2007.3 2005.8 2004.3 2002.72 2000.81 1998.67 1996.53 1994.38 1992.24 1990.1 1987.95 1985.81 1983.67 1981.14 1978.55 1975.95 1973.36 1970.77 1968.18 1965.75 1963.35 1960.95 1958.32 1955.66 1953.0 1950.34 1947.68 1945.02 1942.36 1939.73 1937.13 1934.43 1931.76 1929.16 1926.56 1923.95 1921.35 1918.75 1916.14 1913.54 1909.96 1906.24 1903.93 1901.74 1899.56 1897.37 1895.18 1892.99 1890.63 1888.15 1885.74 1883.14 1880.54 1877.94 1875.34 1872.75 1870.15 1868.04 1866.22 1864.56 1862.91 1861.35 1859.84 1858.34 1856.83 1855.33 1853.87 1852.59 1851.22 1849.7 1848.13 1846.56 1844.98 1843.41 1841.84 1840.26 1837.83 1835.32 1832.82 1830.31 1827.81 1825.3 1822.8 1820.29 1817.79 1815.21 1812.62 1810.03 1807.45 1804.83 1802.19 1799.55 1796.9 1794.26 1792.08 1789.98 1787.88 1785.78 1783.61 1781.33 1779.05 1776.77 1774.47 1772.2 1770.14 1768.36 1766.76 1765.08 1763.26 1761.5 1760.2 1758.9 1757.57 1756.15 1754.59 1752.91 1751.11 1749.39 1747.52 1745.65 1743.71 1741.75 1739.79 1737.91 1736.3 1734.82 1733.34 1731.82 1730.28 1728.91 1727.59 1726.29 1725.01 1723.76 1722.5 1720.97 1719.44 1717.9 1716.33 1714.51 1712.77 1711.09 1709.41 1708.99 1706.63 1703.91 1701.19 1700.25 1698.32 1696.11 1693.9 1691.61 1689.32 1686.96 1684.58 1682.14 1679.7 1676.62 1673.45 1670.29 1667.12 1663.95 1660.77 1662.58 1665.13 1667.84 1670.58 1672.44 1673.77 1675.27 1676.85 1678.43 1680.01 1681.34 1681.97 1682.58 1682.56 1683.15 1685.21 1687.29 1689.37 1691.47 1693.56 1695.6 1697.66 1698.68 1699.53 1700.37 1701.21 1702.05 1702.89 1703.74 1704.58 1706.12 1707.67 1709.03 1710.1 1711.11 1712.12 1713.14 1714.39 1715.63 1715.46 1715.07 1714.29 1713.5 1712.72 1711.94 1711.16 1710.38 1709.59 1709.64 1709.81 1709.98 1710.15 1710.32 1710.48 1710.65 1710.82 1710.99 1711.16 1711.33 1711.49 1711.67 1711.84 1712.02 1712.51 1712.96 1713.44 1714.0 1714.56 1715.12 1715.68 1716.24 1716.81 1717.37 1717.52 1717.66 1717.81 1717.95 1718.09 1718.23 1718.38 1718.67 1719.08 1718.77 1718.28 1717.73 1717.18 1716.64 1716.09 1715.54 1714.99 1714.44 1713.58 1712.71 1711.84 1710.97 1710.06 1709.02 1708.42 1708.07 1707.78 1707.12 1706.36 1705.59 1704.83 1704.06 1703.29 1702.53 1701.76 1701.0 1700.24 1699.48 1698.49 1697.48 1696.48 1695.47 1694.46 1693.45 1692.44
1817.54 1816.52 1820.78 1825.26 1829.05 1831.6 1834.15 1836.69 1839.24 1841.79 1844.33 1846.29 1849.9 1853.49 1856.95 1859.82 1862.6 1865.46 1868.35 1871.24 1874.13 1877.02 1879.9 1882.79 1884.96 1887.35 1890.05 1892.77 1895.63 1898.66 1901.78 1904.98 1907.96 1910.41 1912.85 1915.15 1917.4 1919.72 1921.71 1923.87 1926.92 1929.69 1933.16 1936.86 1940.58 1944.31 1948.03 1951.75 1955.47 1959.19 1962.91 1965.13 1971.96 1976.92 1979.49 1981.27 1978.8 1976.25 1973.7 1974.46 1977.36 1975.91 1974.38 1972.84 1971.31 1971.5 1972.55 1973.45 1974.3 1975.15 1976.01 1977.44 1978.85 1980.47 1982.4 1984.09 1985.78 1987.47 1989.57 1992.09 1995.25 1998.41 2001.57 2004.69 2008.15 2007.93 2007.06 2006.26 2006.36 2006.57 2006.58 2006.66 2006.9 2006.31 2004.58 2002.77 2001.43 1999.47 1997.32 1995.18 1993.04 1990.9 1988.75 1986.61 1984.47 1981.92 1979.33 1976.74 1974.15 1971.56 1968.97 1966.38 1963.96 1961.56 1958.93 1956.27 1953.6 1950.94 1948.28 1945.62 1942.96 1940.3 1937.68 1935.0 1932.39 1929.79 1927.19 1924.58 1921.98 1919.38 1916.78 1914.17 1910.56 1906.84 1904.28 1902.09 1899.91 1897.72 1895.53 1893.14 1890.67 1888.19 1885.72 1883.25 1880.92 1878.4 1875.8 1873.2 1870.6 1868.56 1866.73 1865.08 1863.42 1861.83 1860.32 1858.96 1857.74 1856.54 1855.33 1854.05 1852.54 1850.97 1849.4 1847.83 1846.2 1844.42 1842.64 1840.86 1838.06 1835.38 1832.87 1830.37 1827.86 1825.36 1822.85 1820.35 1817.84 1815.26 1812.67 1810.09 1807.5 1804.91 1802.31 1799.66 1797.02 1794.37 1792.21 1790.11 1788.01 1785.91 1783.81 1781.6 1779.32 1777.04 1774.73 1772.44 1770.32 1768.43 1766.82 1765.22 1763.49 1761.89 1760.59 1759.29 1757.97 1756.64 1755.31 1753.87 1752.35 1750.74 1748.98 1747.11 1745.19 1743.23 1741.3 1739.62 1738.14 1736.67 1735.19 1733.71 1732.23 1730.75 1729.44 1728.19 1726.94 1725.69 1724.44 1723.11 1721.55 1719.97 1718.32 1716.49 1714.66 1712.83 1711.01 1709.25 1708.71 1705.91 1703.14 1700.37 1699.8 1697.55 1695.26 1692.97 1690.61 1688.23 1685.82 1683.38 1680.94 1677.85 1674.68 1671.51 1668.35 1665.18 1662.37 1664.17 1666.78 1669.52 1672.26 1674.85 1676.3 1677.62 1678.97 1680.56 1682.14 1683.07 1683.41 1683.31 1685.4 1687.49 1689.56 1691.62 1693.69 1695.78 1697.88 1699.93 1701.83 1702.67 1703.51 1704.36 1705.2 1706.04 1706.88 1707.72 1708.57 1709.41 1710.48 1711.86 1712.87 1713.88 1714.89 1716.11 1717.35 1718.59 1718.39 1718.02 1717.48 1716.7 1715.92 1715.13 1714.35 1713.57 1712.79 1712.86 1713.03 1713.2 1713.37 1713.54 1713.7 1713.87 1714.04 1714.21 1714.38 1714.55 1714.71 1714.88 1715.05 1715.22 1715.45 1715.98 1716.54 1717.1 1717.66 1718.22 1718.79 1719.35 1719.91 1720.47 1720.61 1720.75 1720.9 1721.04 1721.18 1721.32 1721.46 1721.61 1721.78 1721.25 1720.7 1720.15 1719.6 1719.05 1718.51 1717.96 1717.41 1716.86 1715.99 1715.12 1714.25 1713.37 1712.33 1711.29 1710.52 1710.13 1709.76 1709.0 1708.23 1707.47 1706.7 1705.93 1705.17 1704.4 1703.64 1702.87 1702.11 1701.15 1700.15 1699.14 1698.13 1697.12 1696.11 1695.1 1694.09
1813.3 1812.8 1817.28 1821.77 1826.25 1829.49 1832.04 1834.59 1836.92 1838.49 1840.04 1843.02 1846.62 1850.24 1854.21 1857.6 1860.48 1863.37 1866.26 1869.15 1872.04 1874.93 1877.81 1880.7 1882.85 1884.92 1887.39 1890.05 1892.77 1895.49 1898.22 1901.14 1903.59 1905.97 1908.35 1910.73 1913.12 1915.57 1917.87 1920.2 1922.83 1925.66 1929.21 1932.93 1936.44 1940.16 1943.88 1947.6 1951.32 1955.04 1958.77 1960.0 1964.37 1969.18 1972.47 1975.01 1972.55 1970.46 1968.52 1970.25 1973.0 1971.67 1970.26 1968.84 1967.33 1968.16 1969.26 1970.21 1971.2 1972.05 1972.97 1973.9 1975.55 1976.97 1978.63 1980.76 1982.44 1984.14 1986.31 1989.03 1991.93 1994.86 1997.95 2001.03 2004.03 2003.94 2003.71 2003.54 2003.76 2003.97 2004.19 2004.48 2005.0 2005.75 2004.59 2002.92 2001.64 2000.01 1998.06 1995.98 1993.84 1991.69 1989.55 1987.41 1985.27 1982.71 1980.12 1977.53 1974.94 1972.35 1969.76 1967.17 1964.58 1962.17 1959.53 1956.87 1954.2 1951.54 1948.88 1946.22 1943.56 1940.9 1938.24 1935.63 1933.03 1930.42 1927.82 1925.22 1922.61 1920.01 1917.41 1914.8 1911.17 1907.44 1904.63 1902.44 1900.26 1898.07 1895.65 1893.18 1890.71 1888.23 1885.76 1883.29 1880.82 1878.39 1876.06 1873.65 1871.05 1869.09 1867.25 1865.73 1864.33 1863.01 1861.74 1860.46 1859.23 1858.0 1856.79 1855.39 1853.81 1852.13 1850.35 1848.57 1846.79 1845.01 1843.23 1841.45 1838.62 1835.71 1832.93 1830.42 1827.92 1825.41 1822.91 1820.4 1817.9 1815.31 1812.73 1810.14 1807.55 1804.96 1802.38 1799.78 1797.13 1794.49 1792.34 1790.24 1788.14 1786.04 1783.93 1781.83 1779.58 1777.3 1774.98 1772.69 1770.53 1768.61 1766.89 1765.29 1763.68 1762.32 1761.14 1759.96 1758.74 1757.42 1756.09 1754.75 1753.41 1751.95 1750.36 1748.57 1746.66 1744.7 1742.94 1741.47 1739.99 1738.51 1737.04 1735.56 1734.26 1733.2 1731.36 1730.06 1728.81 1727.56 1726.31 1725.05 1723.62 1721.98 1720.3 1718.47 1716.64 1714.81 1712.96 1710.84 1709.69 1707.8 1705.01 1702.21 1699.65 1698.91 1696.62 1694.27 1691.89 1689.5 1687.06 1684.62 1682.19 1679.07 1675.91 1672.74 1669.57 1666.72 1664.09 1665.75 1668.46 1671.2 1673.94 1676.68 1678.71 1680.15 1681.48 1682.8 1684.17 1683.96 1684.77 1686.6 1689.14 1691.68 1693.88 1695.97 1698.03 1700.1 1702.19 1704.26 1705.82 1706.66 1707.5 1708.34 1709.19 1710.03 1710.87 1711.71 1712.55 1713.31 1713.9 1714.64 1715.64 1716.65 1717.83 1719.07 1720.32 1721.56 1721.31 1720.95 1720.58 1719.89 1719.11 1718.33 1717.55 1716.77 1715.98 1716.08 1716.25 1716.42 1716.58 1716.75 1716.92 1717.09 1717.26 1717.43 1717.59 1717.76 1717.93 1718.1 1718.27 1718.39 1718.63 1719.1 1719.64 1720.2 1720.77 1721.33 1721.89 1722.45 1723.01 1723.56 1723.7 1723.84 1723.99 1724.13 1724.27 1724.41 1724.56 1724.65 1724.66 1723.85 1723.12 1722.57 1722.02 1721.47 1720.93 1720.38 1719.83 1719.27 1718.4 1717.53 1716.66 1715.64 1714.6 1713.56 1712.62 1712.23 1711.91 1711.1 1710.29 1709.48 1708.67 1707.86 1707.05 1706.28 1705.51 1704.74 1703.81 1702.81 1701.8 1700.79 1699.78 1698.77 1697.76 1696.75 1695.74
1809.05 1809.3 1813.79 1818.28 1822.76 1827.25 1829.41 1830.94 1832.47 1834.0 1836.05 1839.7 1843.6 1847.63 1851.67 1855.22 1858.4 1861.29 1864.17 1867.06 1869.95 1872.84 1875.73 1878.61 1880.74 1882.7 1884.95 1887.43 1890.04 1892.77 1895.49 1897.95 1900.02 1902.2 1904.38 1906.56 1908.85 1911.23 1913.61 1916.03 1918.77 1921.64 1925.2 1928.92 1932.64 1936.02 1939.74 1943.46 1947.18 1950.9 1954.62 1955.75 1957.65 1961.39 1964.85 1968.32 1967.4 1965.81 1965.14 1966.89 1968.43 1967.54 1966.15 1964.77 1964.08 1964.94 1965.77 1966.88 1968.03 1968.7 1969.94 1970.86 1971.79 1973.45 1975.09 1976.8 1979.04 1980.8 1983.03 1985.12 1987.59 1990.44 1993.32 1996.21 1999.09 1999.03 1998.95 1999.34 2000.22 2000.96 2001.47 2001.94 2002.88 2003.85 2004.6 2003.07 2001.79 2000.52 1998.58 1996.64 1994.64 1992.49 1990.35 1988.21 1986.07 1983.5 1980.91 1978.32 1975.73 1973.14 1970.55 1967.96 1965.37 1962.78 1960.14 1957.5 1954.86 1952.22 1949.58 1946.94 1944.3 1941.66 1939.02 1936.36 1933.7 1931.05 1928.45 1925.85 1923.24 1920.64 1918.04 1915.44 1911.77 1908.05 1904.98 1902.79 1900.6 1898.17 1895.7 1893.22 1890.75 1888.28 1885.8 1883.33 1880.86 1878.38 1876.05 1874.03 1872.03 1870.3 1868.72 1867.33 1865.96 1864.68 1863.41 1862.13 1860.86 1859.58 1858.17 1856.29 1854.51 1852.72 1850.94 1849.16 1847.38 1845.6 1843.82 1842.04 1839.19 1836.27 1833.36 1830.48 1827.97 1825.46 1822.96 1820.45 1817.95 1815.37 1812.78 1810.19 1807.6 1805.02 1802.43 1799.84 1797.25 1794.6 1792.47 1790.37 1788.27 1786.17 1784.06 1781.96 1779.84 1777.56 1775.24 1772.93 1770.78 1768.8 1767.07 1765.75 1764.42 1763.13 1761.95 1760.77 1759.53 1758.2 1756.86 1755.53 1754.19 1752.86 1751.52 1749.99 1748.14 1746.27 1744.79 1743.31 1741.89 1740.83 1739.77 1738.7 1737.64 1736.58 1734.72 1732.83 1730.93 1729.31 1728.07 1726.82 1725.58 1723.98 1722.28 1720.45 1718.62 1716.61 1714.49 1712.3 1710.1 1709.4 1706.67 1704.46 1701.5 1699.24 1697.92 1695.54 1693.16 1690.75 1688.31 1685.87 1683.43 1680.3 1677.13 1673.96 1671.08 1668.44 1665.81 1667.4 1670.14 1672.88 1675.61 1678.35 1681.09 1682.58 1684.0 1684.79 1684.87 1686.29 1687.66 1689.61 1692.14 1694.68 1697.22 1699.76 1702.29 1704.44 1706.51 1708.59 1709.81 1710.65 1711.49 1712.33 1713.14 1713.72 1714.31 1714.9 1715.48 1716.07 1716.65 1717.4 1718.41 1719.56 1720.8 1722.04 1723.28 1724.52 1724.24 1723.87 1723.51 1723.09 1722.31 1721.52 1720.74 1719.96 1719.18 1719.3 1719.47 1719.63 1719.8 1719.97 1720.14 1720.31 1720.48 1720.64 1720.81 1720.98 1721.15 1721.32 1721.32 1721.32 1721.87 1722.34 1722.81 1723.31 1723.87 1724.43 1724.99 1725.55 1726.11 1726.65 1726.79 1726.94 1727.08 1727.22 1727.36 1727.5 1727.54 1727.58 1727.56 1726.75 1725.94 1725.13 1724.44 1723.89 1723.34 1722.8 1722.25 1721.68 1720.81 1719.94 1718.95 1717.91 1716.87 1715.83 1714.79 1714.44 1714.09 1713.28 1712.47 1711.66 1710.85 1710.04 1709.23 1708.42 1707.81 1706.59 1705.4 1704.37 1703.34 1702.33 1701.32 1700.32 1699.31 1698.3 1697.29
1804.83 1805.81 1810.3 1814.85 1819.4 1823.18 1825.45 1826.71 1828.12 1829.64 1833.0 1837.03 1841.06 1845.09 1849.12 1852.67 1856.12 1859.2 1862.08 1864.97 1867.86 1870.75 1873.64 1876.53 1878.62 1880.59 1882.66 1884.98 1887.48 1890.04 1892.77 1894.56 1896.46 1898.64 1900.82 1903.01 1905.19 1907.37 1909.55 1911.87 1914.74 1917.61 1921.2 1924.92 1928.63 1932.35 1935.9 1939.31 1943.03 1946.75 1950.47 1951.51 1952.63 1955.12 1958.17 1961.64 1961.17 1960.38 1961.55 1963.03 1964.52 1963.62 1962.18 1960.73 1960.14 1960.8 1961.95 1963.09 1964.12 1964.85 1966.14 1967.42 1968.75 1969.68 1971.2 1973.2 1974.96 1977.2 1979.38 1981.45 1983.71 1986.01 1988.33 1991.0 1993.84 1993.97 1993.97 1993.96 1994.82 1995.8 1996.6 1999.04 2000.24 2001.45 2002.65 2003.23 2001.95 2000.67 1999.1 1997.16 1995.22 1993.28 1991.15 1989.01 1986.86 1984.29 1981.7 1979.11 1976.52 1973.93 1971.34 1968.69 1966.03 1963.56 1960.92 1958.28 1955.64 1953.0 1950.36 1947.72 1945.08 1942.44 1939.8 1937.14 1934.48 1931.81 1929.15 1926.49 1923.88 1921.27 1918.67 1916.07 1912.38 1908.65 1905.33 1903.14 1900.68 1898.21 1895.74 1893.26 1890.85 1888.71 1886.56 1884.39 1882.13 1879.95 1877.77 1875.63 1873.64 1871.85 1870.32 1868.92 1867.63 1866.35 1865.08 1863.81 1862.44 1860.83 1859.21 1857.01 1855.1 1853.32 1851.54 1849.75 1847.97 1846.19 1844.41 1842.63 1839.75 1836.83 1833.92 1831.01 1828.09 1825.52 1823.01 1820.51 1818.0 1815.42 1812.83 1810.24 1807.66 1805.07 1802.48 1799.89 1797.31 1794.72 1792.6 1790.5 1788.4 1786.3 1784.19 1782.09 1779.99 1777.83 1775.49 1773.21 1771.5 1769.83 1768.23 1766.69 1765.31 1763.98 1762.76 1761.58 1760.31 1758.98 1757.64 1756.31 1754.97 1753.64 1752.3 1750.96 1749.62 1748.46 1747.4 1746.34 1745.27 1744.21 1743.15 1742.08 1741.02 1739.96 1738.08 1736.19 1734.29 1732.39 1730.5 1728.6 1727.33 1725.99 1724.26 1722.38 1720.23 1718.04 1715.84 1713.65 1711.48 1710.5 1708.76 1706.66 1703.5 1700.22 1698.77 1696.82 1694.43 1691.99 1689.55 1687.11 1684.67 1681.53 1678.36 1675.43 1672.8 1670.16 1667.52 1669.24 1671.84 1674.56 1677.29 1680.03 1682.77 1684.99 1685.23 1686.17 1687.71 1689.17 1690.54 1692.61 1695.15 1697.69 1700.22 1702.76 1705.3 1707.84 1710.37 1712.91 1713.55 1714.14 1714.72 1715.31 1715.89 1716.48 1717.06 1717.65 1718.23 1718.82 1719.41 1720.17 1721.28 1722.52 1723.76 1725.01 1726.25 1727.49 1727.17 1726.8 1726.43 1726.07 1725.5 1724.72 1723.94 1723.15 1722.37 1722.52 1722.68 1722.85 1723.02 1723.19 1723.36 1723.53 1723.69 1723.86 1724.03 1724.2 1724.25 1724.25 1724.25 1724.45 1725.11 1725.58 1726.05 1726.53 1727.0 1727.53 1728.09 1728.66 1729.22 1729.74 1729.88 1730.03 1730.17 1730.31 1730.39 1730.43 1730.46 1730.5 1730.46 1729.65 1728.84 1728.03 1727.22 1726.41 1725.77 1725.22 1724.67 1724.09 1723.22 1722.26 1721.22 1720.18 1719.14 1718.16 1717.19 1716.83 1716.27 1715.46 1714.65 1713.84 1713.06 1712.52 1711.97 1710.97 1709.9 1708.47 1707.08 1705.96 1704.92 1703.88 1702.85 1701.82 1700.8 1699.84 1699.06
1800.96 1802.49 1807.05 1811.38 1815.14 1818.89 1822.16 1823.09 1824.22 1826.44 1830.45 1834.48 1838.52 1842.55 1846.58 1850.11 1853.57 1857.03 1859.99 1862.88 1865.77 1868.66 1871.55 1874.44 1876.51 1878.48 1880.45 1882.61 1885.01 1887.52 1889.56 1891.16 1892.91 1895.09 1897.27 1899.45 1901.49 1903.54 1905.65 1907.87 1910.72 1913.59 1917.2 1920.91 1924.63 1928.34 1932.06 1935.77 1938.89 1942.61 1946.33 1947.35 1949.04 1951.15 1953.26 1955.35 1956.19 1956.94 1958.11 1959.58 1961.15 1959.6 1957.89 1956.24 1955.79 1956.43 1957.35 1958.87 1960.12 1961.01 1962.29 1963.57 1964.85 1966.21 1967.57 1968.96 1970.95 1973.04 1975.16 1977.34 1979.74 1981.91 1984.24 1986.66 1988.94 1988.85 1988.99 1988.98 1988.99 1990.3 1992.39 1995.13 1997.82 1999.08 2000.28 2001.66 2002.1 2000.83 1999.55 1997.68 1995.74 1993.8 1991.86 1989.81 1987.66 1985.08 1982.49 1979.9 1977.25 1974.59 1971.93 1969.26 1966.72 1964.36 1961.71 1959.06 1956.42 1953.78 1951.14 1948.5 1945.86 1943.22 1940.58 1937.92 1935.26 1932.59 1929.93 1927.27 1924.61 1921.95 1919.3 1916.7 1912.98 1909.26 1905.67 1903.48 1901.34 1899.2 1897.06 1894.91 1892.77 1890.63 1888.48 1886.24 1883.96 1881.69 1879.48 1877.31 1875.24 1873.41 1871.92 1870.57 1869.3 1868.03 1866.71 1865.1 1863.48 1861.87 1860.26 1858.04 1855.81 1853.91 1852.13 1850.35 1848.56 1846.78 1845.0 1843.22 1840.31 1837.4 1834.48 1831.57 1828.66 1825.74 1823.07 1820.56 1818.06 1815.47 1812.88 1810.3 1807.71 1805.12 1802.53 1799.98 1797.43 1795.33 1793.4 1791.29 1789.14 1786.96 1784.79 1782.61 1780.44 1778.34 1776.41 1774.57 1772.88 1771.23 1769.58 1767.92 1766.33 1764.88 1763.57 1762.39 1761.1 1759.76 1758.42 1757.09 1755.75 1754.53 1754.04 1753.55 1753.07 1751.86 1750.78 1749.72 1748.65 1747.59 1746.53 1745.46 1744.4 1743.34 1741.44 1739.55 1737.65 1735.75 1733.86 1731.96 1730.06 1728.17 1726.1 1724.03 1721.96 1719.89 1717.82 1715.67 1713.06 1710.84 1709.98 1707.71 1704.87 1702.03 1698.84 1698.09 1695.67 1693.23 1690.79 1688.35 1685.92 1682.75 1679.78 1677.15 1674.5 1671.8 1669.09 1671.47 1674.83 1677.8 1680.52 1683.12 1685.72 1685.63 1687.29 1688.96 1690.54 1692.05 1693.43 1695.62 1698.15 1700.69 1703.23 1705.77 1708.3 1710.84 1712.8 1714.68 1716.56 1717.33 1717.75 1718.25 1718.76 1719.31 1719.88 1720.44 1720.99 1721.57 1722.16 1723.0 1724.24 1725.49 1726.73 1727.97 1729.21 1730.45 1730.09 1729.73 1729.36 1728.99 1728.63 1727.91 1727.13 1726.35 1725.57 1725.73 1725.9 1726.07 1726.24 1726.41 1726.57 1726.74 1726.91 1727.08 1727.18 1727.18 1727.19 1727.19 1727.19 1727.7 1728.36 1728.83 1729.3 1729.77 1730.24 1730.71 1731.2 1731.76 1732.32 1732.83 1732.97 1733.12 1733.24 1733.28 1733.32 1733.35 1733.39 1733.43 1733.37 1732.56 1731.74 1730.93 1730.12 1729.31 1728.5 1727.69 1727.09 1726.5 1725.56 1724.52 1723.53 1722.56 1721.62 1720.71 1719.8 1719.26 1718.45 1717.72 1717.18 1716.63 1716.09 1715.21 1714.14 1713.06 1711.99 1710.36 1708.85 1707.66 1706.53 1705.48 1704.43 1703.38 1702.46 1701.61 1700.82
1796.69 1799.24 1803.33 1807.09 1810.84 1814.6 1818.36 1819.75 1820.73 1823.96 1827.91 1831.94 1835.97 1840.0 1844.03 1847.55 1851.01 1854.47 1857.91 1860.8 1863.68 1866.57 1869.46 1872.35 1874.4 1876.37 1878.33 1880.4 1882.63 1884.94 1886.46 1887.98 1889.52 1891.53 1893.67 1895.81 1897.95 1900.09 1902.23 1904.19 1906.69 1909.56 1913.19 1916.91 1920.62 1924.34 1928.05 1931.77 1935.48 1938.75 1942.19 1943.97 1945.99 1947.55 1948.92 1950.32 1952.1 1953.41 1954.66 1956.05 1957.5 1955.52 1953.65 1951.77 1950.61 1951.4 1953.05 1954.66 1956.08 1957.16 1958.44 1959.72 1961.01 1962.29 1963.57 1965.02 1966.71 1968.76 1970.9 1973.11 1975.24 1977.59 1980.0 1982.38 1983.56 1983.49 1983.52 1983.58 1983.86 1984.65 1987.17 1990.95 1994.1 1996.61 1997.91 1999.24 2000.23 2000.56 1999.7 1998.2 1996.26 1994.32 1992.38 1990.44 1988.45 1985.81 1983.15 1980.49 1977.82 1975.16 1972.5 1969.88 1967.52 1965.15 1962.5 1959.85 1957.2 1954.56 1951.92 1949.28 1946.64 1944.0 1941.36 1938.7 1936.04 1933.38 1930.71 1928.05 1925.39 1922.73 1920.07 1917.52 1915.31 1912.32 1909.04 1905.77 1903.26 1901.12 1898.98 1896.84 1894.69 1892.55 1890.36 1888.08 1885.81 1883.54 1881.26 1879.02 1876.85 1874.96 1873.52 1872.24 1870.97 1869.37 1867.75 1866.14 1864.53 1862.91 1861.29 1859.07 1856.84 1854.62 1852.72 1850.94 1849.16 1847.38 1845.59 1843.79 1840.88 1837.96 1835.05 1832.13 1829.22 1826.31 1823.39 1820.62 1818.11 1815.52 1812.94 1810.35 1807.8 1805.24 1802.69 1800.15 1797.86 1795.95 1794.02 1792.09 1789.99 1787.87 1785.74 1783.69 1781.69 1779.68 1777.73 1775.94 1774.28 1772.62 1770.97 1769.32 1767.66 1766.01 1764.45 1763.19 1761.88 1760.54 1759.55 1759.06 1758.58 1758.09 1757.6 1757.11 1756.61 1755.41 1754.2 1753.1 1752.04 1750.97 1749.91 1748.85 1747.78 1746.7 1744.81 1742.91 1741.01 1739.11 1737.22 1735.32 1733.42 1730.86 1728.31 1726.23 1724.16 1722.09 1719.69 1717.08 1714.49 1711.99 1711.31 1708.76 1705.92 1703.09 1700.39 1698.01 1696.9 1694.47 1692.04 1689.6 1687.14 1684.14 1681.48 1678.75 1675.97 1673.2 1670.42 1673.84 1677.25 1680.34 1683.43 1686.26 1686.3 1688.13 1689.94 1691.7 1693.38 1694.92 1696.31 1698.62 1701.16 1703.7 1706.23 1708.77 1710.78 1712.66 1714.54 1716.42 1718.3 1720.18 1721.28 1721.69 1722.11 1722.54 1723.03 1723.54 1724.05 1724.56 1725.1 1725.97 1727.21 1728.45 1729.69 1730.94 1732.18 1733.38 1733.02 1732.65 1732.29 1731.92 1731.55 1731.11 1730.33 1729.54 1728.78 1728.95 1729.12 1729.29 1729.46 1729.62 1729.79 1729.96 1730.11 1730.11 1730.12 1730.12 1730.12 1730.12 1730.27 1730.95 1731.6 1732.07 1732.54 1733.01 1733.48 1733.95 1734.43 1734.9 1735.42 1735.92 1736.06 1736.13 1736.17 1736.2 1736.24 1736.28 1736.32 1736.35 1736.27 1735.46 1734.65 1733.83 1733.02 1732.21 1731.4 1730.59 1729.78 1729.0 1728.09 1727.19 1726.3 1725.4 1724.51 1723.61 1722.71 1721.84 1721.3 1720.75 1720.21 1719.45 1718.38 1717.3 1716.23 1715.15 1714.08 1712.24 1710.66 1709.37 1708.23 1707.1 1706.06 1705.15 1704.24 1703.38 1702.59
1792.43 1795.28 1799.04 1802.8 1806.55 1810.31 1814.07 1816.49 1818.1 1821.7 1825.39 1829.4 1833.43 1837.46 1841.49 1844.99 1848.45 1851.91 1855.37 1858.71 1861.59 1864.48 1867.37 1870.26 1872.29 1874.26 1876.22 1878.19 1880.35 1882.16 1883.79 1885.24 1886.68 1888.27 1890.41 1892.53 1894.66 1896.8 1898.89 1900.82 1902.78 1905.54 1909.19 1912.9 1916.62 1920.33 1924.05 1927.77 1931.48 1935.2 1938.65 1940.17 1941.13 1942.41 1944.07 1945.73 1947.39 1949.07 1950.93 1952.32 1953.69 1951.64 1949.59 1947.39 1945.45 1946.99 1948.64 1950.29 1951.92 1953.27 1954.54 1955.81 1957.08 1958.35 1959.62 1960.89 1962.46 1964.49 1966.63 1968.76 1970.93 1973.19 1975.44 1977.85 1978.1 1978.05 1978.01 1978.03 1978.04 1979.89 1981.93 1984.56 1989.52 1993.72 1995.51 1995.39 1995.59 1995.54 1995.42 1996.78 1996.71 1994.73 1992.75 1990.77 1988.9 1986.39 1983.72 1981.06 1978.4 1975.73 1973.06 1970.68 1968.32 1965.94 1963.29 1960.64 1957.99 1955.34 1952.7 1950.06 1947.42 1944.78 1942.14 1939.48 1936.82 1934.16 1931.49 1928.83 1926.17 1923.51 1920.99 1918.51 1916.3 1914.08 1911.87 1909.35 1906.08 1903.04 1900.9 1898.76 1896.61 1894.47 1892.21 1889.93 1887.66 1885.38 1883.11 1880.83 1878.56 1876.52 1875.19 1873.64 1872.02 1870.41 1868.8 1867.18 1865.57 1863.96 1862.32 1860.09 1857.87 1855.65 1853.42 1851.53 1849.75 1847.97 1846.19 1844.36 1841.44 1838.53 1835.61 1832.7 1829.78 1826.87 1823.95 1821.04 1818.16 1815.61 1813.06 1810.51 1807.96 1805.41 1802.86 1800.39 1798.49 1796.58 1794.65 1792.72 1790.82 1788.9 1786.95 1785.0 1783.03 1781.02 1779.06 1777.32 1775.67 1774.02 1772.36 1770.71 1769.06 1767.41 1765.79 1764.54 1764.09 1763.6 1763.11 1762.63 1762.14 1761.65 1761.16 1760.68 1760.16 1758.95 1757.74 1756.54 1755.42 1754.35 1753.29 1752.23 1751.16 1750.06 1748.17 1746.27 1744.37 1742.47 1740.58 1738.54 1735.94 1733.35 1730.8 1728.43 1726.33 1723.74 1721.41 1719.08 1716.45 1713.68 1711.73 1710.37 1707.67 1704.96 1702.2 1699.12 1697.47 1695.67 1693.25 1690.82 1688.29 1685.47 1682.66 1679.85 1677.03 1674.21 1673.19 1676.42 1679.73 1683.02 1686.29 1686.6 1688.62 1690.57 1692.49 1694.33 1696.12 1697.76 1699.19 1701.63 1704.16 1706.7 1708.76 1710.64 1712.52 1714.4 1716.29 1718.17 1720.05 1721.93 1723.81 1725.17 1725.65 1726.05 1726.46 1726.9 1727.33 1727.81 1728.32 1729.01 1730.18 1731.42 1732.66 1733.9 1735.14 1736.31 1735.94 1735.58 1735.21 1734.85 1734.48 1734.11 1733.52 1732.74 1732.0 1732.17 1732.34 1732.51 1732.67 1732.84 1733.01 1733.05 1733.05 1733.05 1733.05 1733.05 1733.05 1733.05 1733.52 1734.2 1734.84 1735.31 1735.78 1736.26 1736.73 1737.2 1737.67 1738.14 1738.61 1738.98 1739.02 1739.06 1739.09 1739.13 1739.17 1739.2 1739.24 1739.28 1739.17 1738.36 1737.55 1736.74 1735.93 1735.11 1734.3 1733.49 1732.88 1732.43 1731.46 1730.5 1729.54 1728.58 1727.64 1726.74 1725.85 1724.95 1724.32 1723.69 1722.62 1721.54 1720.47 1719.39 1718.32 1717.24 1716.12 1714.13 1712.49 1711.15 1709.95 1708.91 1707.92 1706.96 1706.05 1705.17 1704.36
1788.56 1792.84 1796.05 1799.37 1802.66 1806.02 1809.78 1813.23 1816.0 1819.53 1823.11 1826.87 1830.89 1834.92 1838.95 1842.44 1845.89 1849.35 1852.81 1856.27 1859.51 1862.39 1865.28 1868.17 1870.18 1872.14 1874.11 1876.07 1878.05 1879.54 1880.97 1882.41 1883.85 1885.07 1887.16 1889.3 1891.42 1893.54 1895.52 1897.44 1899.37 1901.51 1905.18 1908.9 1912.61 1916.34 1919.98 1923.61 1927.21 1930.77 1933.34 1934.49 1936.15 1937.81 1939.48 1941.14 1942.8 1944.85 1947.18 1948.63 1950.35 1948.11 1945.62 1943.13 1941.04 1942.95 1944.66 1945.93 1947.2 1948.1 1949.87 1951.55 1952.9 1954.19 1955.46 1956.82 1958.3 1960.23 1962.36 1964.49 1966.63 1968.76 1970.99 1972.18 1972.39 1972.57 1972.54 1972.52 1974.28 1976.35 1977.88 1979.48 1982.34 1990.18 1990.9 1990.56 1990.77 1990.52 1991.24 1992.6 1993.95 1994.99 1993.0 1991.07 1989.28 1986.96 1984.29 1981.63 1978.97 1976.3 1973.84 1971.48 1969.11 1966.73 1964.08 1961.43 1958.78 1956.13 1953.48 1950.84 1948.2 1945.56 1942.92 1940.26 1937.6 1934.94 1932.28 1929.61 1926.96 1924.47 1921.97 1919.5 1917.29 1915.07 1912.86 1910.64 1908.43 1906.21 1903.12 1900.68 1898.54 1896.33 1894.06 1891.78 1889.51 1887.23 1884.96 1882.68 1880.34 1878.07 1876.29 1874.68 1873.07 1871.45 1869.84 1868.23 1866.61 1865.0 1863.35 1861.12 1858.9 1856.68 1854.45 1852.23 1850.34 1848.56 1846.78 1844.92 1842.01 1839.09 1836.18 1833.26 1830.35 1827.43 1824.52 1821.39 1818.35 1815.69 1813.22 1810.67 1808.12 1805.57 1803.02 1801.02 1799.12 1797.2 1795.44 1793.71 1791.88 1789.98 1788.09 1786.19 1784.3 1782.36 1780.38 1778.72 1777.06 1775.6 1774.31 1773.01 1771.71 1770.41 1769.11 1767.89 1767.62 1767.16 1766.68 1766.19 1765.7 1765.21 1764.73 1764.24 1763.7 1762.49 1761.29 1760.08 1758.88 1757.73 1756.67 1755.61 1754.54 1753.42 1751.53 1749.63 1747.73 1745.83 1743.62 1741.03 1738.43 1735.84 1733.3 1730.71 1728.33 1726.0 1723.67 1720.9 1718.35 1715.6 1712.85 1712.24 1709.55 1706.87 1703.85 1700.77 1697.69 1696.84 1694.35 1691.85 1689.07 1686.18 1683.37 1680.56 1677.75 1674.94 1676.08 1679.28 1682.54 1685.8 1687.0 1688.6 1690.64 1692.68 1694.7 1696.72 1698.69 1700.54 1702.09 1704.63 1706.75 1708.63 1710.51 1712.39 1714.27 1716.15 1718.03 1719.91 1721.79 1723.67 1725.55 1727.43 1729.04 1729.6 1730.01 1730.41 1730.81 1731.25 1731.69 1732.24 1733.18 1734.38 1735.62 1736.87 1738.11 1739.24 1738.87 1738.5 1738.14 1737.77 1737.41 1737.04 1736.68 1735.93 1735.22 1735.39 1735.56 1735.72 1735.89 1735.98 1735.98 1735.98 1735.98 1735.98 1735.98 1735.98 1735.98 1736.09 1736.77 1737.45 1738.09 1738.56 1739.03 1739.5 1739.97 1740.44 1740.91 1741.38 1741.7 1741.77 1741.92 1741.98 1742.02 1742.06 1742.09 1742.13 1742.17 1742.21 1742.07 1741.26 1740.45 1739.64 1738.83 1738.02 1737.21 1736.66 1736.32 1735.85 1734.89 1733.92 1732.96 1731.99 1731.03 1730.07 1729.12 1728.17 1726.96 1725.78 1724.71 1723.63 1722.56 1721.48 1720.41 1719.33 1717.99 1716.02 1714.38 1713.1 1712.15 1710.98 1709.86 1708.87 1707.89 1706.96 1706.07
1785.61 1789.9 1794.18 1797.42 1800.41 1803.74 1807.05 1810.37 1813.9 1817.43 1820.96 1824.53 1828.34 1832.37 1836.4 1839.88 1843.34 1846.8 1850.25 1853.71 1857.17 1860.31 1863.19 1866.08 1868.07 1870.03 1872.0 1873.97 1875.35 1876.7 1878.14 1879.57 1881.01 1882.23 1883.86 1886.05 1888.19 1890.26 1892.18 1894.1 1895.83 1897.55 1899.56 1902.15 1905.65 1909.28 1912.92 1916.54 1920.09 1923.65 1927.03 1929.9 1931.56 1933.22 1934.88 1936.55 1938.21 1940.73 1942.95 1945.02 1945.95 1944.24 1941.75 1939.26 1937.4 1938.67 1939.94 1941.21 1942.49 1943.62 1944.3 1946.06 1947.97 1949.69 1951.21 1952.75 1954.22 1955.96 1958.09 1960.23 1962.36 1964.49 1966.64 1966.8 1966.94 1966.95 1967.03 1969.19 1971.32 1973.42 1975.08 1976.61 1982.61 1986.01 1986.16 1985.74 1985.94 1985.69 1987.05 1988.41 1990.01 1991.83 1993.26 1991.45 1989.67 1987.53 1984.87 1982.2 1979.54 1977.0 1974.64 1972.27 1969.91 1967.53 1964.87 1962.22 1959.57 1956.92 1954.27 1951.62 1948.98 1946.34 1943.7 1941.04 1938.38 1935.72 1933.06 1930.44 1927.94 1925.45 1922.96 1920.49 1918.28 1916.06 1913.85 1911.63 1909.42 1907.2 1904.99 1902.78 1900.45 1898.16 1895.82 1893.49 1891.16 1888.82 1886.49 1884.16 1881.82 1879.67 1877.57 1875.72 1874.11 1872.5 1870.88 1869.27 1867.66 1866.04 1864.37 1862.15 1859.93 1857.7 1855.48 1853.26 1851.03 1849.15 1847.37 1845.48 1842.57 1839.66 1836.74 1833.83 1830.91 1827.79 1824.65 1821.51 1818.56 1815.83 1813.2 1810.75 1808.29 1805.74 1803.54 1801.74 1800.04 1798.33 1796.6 1794.83 1792.93 1791.04 1789.14 1787.25 1785.35 1783.77 1782.6 1781.52 1780.22 1778.93 1777.63 1776.33 1775.03 1773.73 1772.44 1771.23 1770.97 1770.7 1770.24 1769.75 1769.26 1768.78 1768.29 1767.8 1767.24 1766.04 1764.83 1763.63 1762.42 1761.21 1760.05 1758.99 1757.92 1756.78 1754.89 1752.99 1751.09 1748.7 1746.11 1743.51 1740.92 1738.34 1735.8 1733.11 1730.59 1728.12 1725.61 1722.98 1720.23 1717.5 1714.78 1712.68 1711.45 1708.58 1705.5 1702.48 1699.31 1696.46 1695.36 1692.74 1689.85 1686.94 1684.07 1681.26 1678.45 1676.57 1679.14 1682.03 1685.25 1687.54 1688.89 1690.9 1692.91 1694.92 1696.93 1698.93 1700.94 1702.95 1704.91 1706.61 1708.49 1710.37 1712.25 1714.13 1716.01 1717.89 1719.77 1721.65 1723.53 1725.41 1727.3 1729.18 1731.06 1732.91 1733.5 1733.96 1734.37 1734.77 1735.18 1735.69 1736.42 1737.35 1738.59 1739.83 1741.07 1742.16 1741.8 1741.43 1741.06 1740.7 1740.33 1739.97 1739.6 1739.13 1738.44 1738.6 1738.77 1738.91 1738.91 1738.91 1738.91 1738.91 1738.92 1738.92 1738.92 1738.92 1738.92 1739.34 1740.02 1740.7 1741.33 1741.8 1742.27 1742.74 1743.21 1743.68 1744.16 1744.42 1744.47 1744.54 1744.7 1744.85 1744.94 1744.98 1745.02 1745.06 1745.09 1745.13 1744.97 1744.16 1743.35 1742.54 1741.73 1740.92 1740.45 1740.11 1739.77 1739.28 1738.31 1737.35 1736.38 1735.42 1734.45 1733.49 1732.52 1731.56 1730.51 1728.98 1727.46 1726.01 1724.65 1723.57 1722.5 1721.42 1719.87 1717.9 1716.93 1715.84 1714.84 1713.67 1712.51 1711.34 1710.17 1709.01 1707.73
1783.88 1788.2 1791.23 1795.51 1798.8 1801.68 1804.78 1808.25 1811.81 1815.33 1818.86 1822.39 1825.94 1829.83 1833.86 1837.32 1840.78 1844.24 1847.7 1851.16 1854.61 1858.07 1861.1 1863.99 1865.96 1867.92 1869.91 1871.75 1872.84 1873.93 1875.3 1876.74 1878.18 1879.39 1880.6 1882.74 1884.93 1886.69 1888.4 1890.12 1891.84 1893.56 1895.57 1897.58 1899.6 1901.92 1904.9 1908.22 1911.75 1915.38 1919.08 1922.43 1925.64 1928.36 1930.29 1931.95 1933.61 1935.66 1938.47 1940.15 1939.79 1939.44 1937.8 1935.61 1934.33 1934.68 1935.22 1936.5 1937.77 1939.05 1939.63 1940.51 1942.25 1944.21 1946.21 1948.2 1950.09 1951.69 1953.83 1955.97 1958.16 1960.35 1962.11 1961.93 1961.83 1961.78 1963.7 1966.34 1968.79 1970.61 1972.55 1973.73 1976.27 1979.66 1981.41 1980.91 1981.0 1981.51 1982.86 1984.47 1986.3 1987.91 1989.16 1991.83 1990.05 1988.1 1985.44 1982.78 1980.16 1977.79 1975.43 1973.07 1970.71 1968.31 1965.66 1963.01 1960.36 1957.71 1955.06 1952.41 1949.76 1947.12 1944.48 1941.82 1939.16 1936.5 1933.91 1931.42 1928.93 1926.43 1923.94 1921.48 1919.27 1917.05 1914.84 1912.62 1910.41 1908.19 1905.98 1903.77 1901.78 1899.64 1897.31 1894.97 1892.64 1890.31 1887.97 1885.64 1883.31 1881.27 1879.19 1877.06 1875.15 1873.54 1871.93 1870.31 1868.7 1867.09 1865.4 1863.18 1860.95 1858.73 1856.51 1854.28 1852.06 1849.84 1847.96 1846.05 1843.13 1840.22 1837.3 1834.19 1831.05 1827.91 1824.77 1821.7 1818.77 1816.03 1813.3 1810.72 1808.35 1806.45 1804.6 1802.9 1801.19 1799.48 1797.76 1795.88 1793.98 1792.09 1790.19 1789.0 1787.81 1786.61 1785.46 1784.56 1783.54 1782.25 1780.95 1779.65 1778.35 1777.05 1775.76 1774.58 1774.31 1774.05 1773.78 1773.31 1772.82 1772.34 1771.85 1771.36 1770.79 1769.58 1768.38 1767.17 1765.96 1764.76 1763.55 1762.37 1761.31 1760.14 1758.24 1756.35 1753.78 1751.19 1748.6 1746.0 1743.39 1740.84 1738.16 1735.5 1732.9 1730.33 1727.62 1724.95 1722.24 1719.48 1716.73 1713.97 1713.25 1710.35 1707.34 1704.09 1700.83 1697.5 1695.69 1693.55 1690.64 1687.72 1684.81 1681.96 1679.15 1679.68 1682.25 1684.95 1687.99 1688.56 1691.54 1693.55 1695.56 1697.57 1699.58 1701.59 1703.59 1705.54 1707.46 1709.15 1710.84 1712.53 1714.22 1715.88 1717.76 1719.64 1721.52 1723.4 1725.28 1727.16 1729.04 1730.92 1732.8 1734.68 1736.56 1737.37 1737.92 1738.33 1738.73 1739.2 1739.89 1740.61 1741.56 1742.8 1744.04 1745.09 1744.72 1744.36 1743.99 1743.62 1743.26 1742.89 1742.53 1742.16 1741.66 1741.82 1741.84 1741.84 1741.84 1741.85 1741.85 1741.85 1741.85 1741.85 1741.85 1741.85 1741.91 1742.59 1743.27 1743.95 1744.57 1745.04 1745.52 1745.99 1746.46 1746.93 1747.15 1747.2 1747.24 1747.32 1747.47 1747.63 1747.79 1747.91 1747.95 1747.98 1748.02 1748.06 1747.87 1747.06 1746.25 1745.44 1744.63 1744.23 1743.89 1743.55 1743.21 1742.7 1741.74 1740.77 1739.81 1738.84 1737.88 1736.91 1735.95 1735.1 1734.37 1732.64 1731.06 1729.49 1727.97 1726.51 1725.06 1723.61 1722.21 1720.94 1719.74 1718.58 1717.53 1716.36 1715.2 1714.03 1712.86 1711.18 1709.45
1781.68 1787.44 1790.91 1793.76 1796.85 1800.18 1802.84 1806.29 1809.75 1813.21 1816.74 1820.29 1823.82 1827.36 1831.3 1834.76 1838.22 1841.68 1845.14 1848.6 1852.06 1855.52 1858.98 1861.88 1863.85 1865.84 1867.83 1869.22 1870.33 1871.43 1872.52 1873.9 1875.33 1876.55 1877.76 1879.44 1881.29 1882.71 1884.41 1886.13 1887.85 1889.57 1891.58 1893.6 1895.61 1897.62 1899.64 1901.79 1904.62 1907.64 1911.16 1914.39 1918.11 1921.17 1924.18 1926.76 1929.02 1930.68 1933.58 1934.27 1934.06 1933.39 1932.94 1931.47 1931.12 1931.52 1931.96 1932.31 1933.06 1934.33 1935.22 1935.63 1937.33 1939.59 1941.59 1943.59 1945.59 1947.6 1949.84 1952.01 1954.2 1956.39 1957.73 1957.44 1957.21 1958.01 1960.81 1963.51 1966.13 1968.31 1969.7 1970.39 1970.91 1973.31 1976.5 1976.09 1975.98 1977.32 1978.94 1980.76 1982.0 1983.25 1984.5 1986.25 1990.39 1988.63 1986.01 1983.33 1980.95 1978.59 1976.23 1973.87 1971.51 1969.11 1966.45 1963.8 1961.15 1958.5 1955.85 1953.2 1950.55 1947.91 1945.26 1942.6 1939.94 1937.39 1934.9 1932.4 1929.91 1927.42 1924.93 1922.47 1920.26 1918.04 1915.83 1913.61 1911.4 1909.19 1906.97 1904.92 1902.99 1901.12 1898.79 1896.46 1894.12 1891.79 1889.46 1887.12 1884.79 1882.87 1880.81 1878.69 1876.56 1874.58 1872.97 1871.36 1869.74 1868.13 1866.43 1864.21 1861.98 1859.76 1857.54 1855.31 1853.09 1850.86 1848.64 1846.61 1843.7 1840.59 1837.45 1834.31 1831.17 1828.03 1824.88 1821.92 1818.98 1816.23 1814.2 1812.25 1810.09 1807.91 1806.01 1804.11 1802.35 1800.64 1798.83 1796.93 1795.42 1794.23 1793.04 1791.84 1790.65 1789.46 1788.31 1787.42 1786.53 1785.57 1784.27 1782.97 1781.67 1780.37 1779.08 1777.93 1777.66 1777.39 1777.13 1776.86 1776.39 1775.9 1775.41 1774.92 1774.33 1773.13 1771.92 1770.71 1769.51 1768.3 1767.09 1765.89 1764.69 1763.5 1761.46 1758.86 1756.27 1753.68 1751.08 1748.49 1745.88 1743.25 1740.52 1737.88 1735.17 1732.4 1729.7 1726.94 1724.18 1721.42 1718.64 1715.82 1713.62 1712.12 1708.85 1705.53 1702.12 1698.74 1695.3 1694.29 1691.4 1688.51 1685.6 1682.68 1680.23 1682.8 1685.36 1687.93 1688.48 1691.52 1694.19 1696.2 1698.21 1700.22 1702.23 1704.19 1706.15 1708.1 1710.02 1711.7 1713.39 1715.08 1716.77 1718.46 1720.15 1721.84 1723.47 1725.14 1727.02 1728.9 1730.78 1732.66 1734.54 1736.42 1738.3 1740.19 1741.24 1741.84 1742.28 1742.74 1743.42 1744.1 1744.81 1745.76 1747.01 1748.02 1747.65 1747.28 1746.92 1746.55 1746.19 1745.82 1745.45 1745.09 1744.81 1744.78 1744.78 1744.78 1744.78 1744.78 1744.78 1744.78 1744.78 1744.78 1744.78 1744.79 1745.16 1745.84 1746.52 1747.2 1747.82 1748.29 1748.76 1749.23 1749.7 1749.88 1749.92 1749.97 1750.01 1750.09 1750.25 1750.41 1750.56 1750.72 1750.87 1750.91 1750.95 1750.98 1750.77 1749.96 1749.15 1748.35 1748.01 1747.67 1747.33 1746.99 1746.65 1746.13 1745.16 1744.2 1743.23 1742.27 1741.3 1740.34 1739.79 1739.66 1738.46 1736.41 1734.83 1733.25 1731.67 1730.08 1728.21 1726.76 1725.27 1724.01 1722.55 1721.32 1720.22 1719.05 1717.89 1716.52 1714.7 1712.89 1711.16
1779.48 1785.61 1790.31 1793.6 1796.27 1798.38 1801.24 1804.68 1808.13 1811.57 1815.02 1818.46 1821.91 1825.36 1828.76 1832.21 1835.67 1839.12 1842.58 1846.04 1849.5 1852.96 1856.42 1859.77 1861.73 1863.69 1865.51 1866.63 1867.76 1868.89 1870.01 1871.11 1872.49 1873.71 1874.92 1876.08 1877.51 1878.93 1880.42 1882.13 1883.85 1885.58 1887.6 1889.61 1891.62 1893.64 1895.65 1897.67 1899.68 1901.8 1904.69 1907.71 1911.03 1913.89 1917.15 1919.91 1922.58 1925.16 1927.43 1928.32 1928.11 1927.9 1927.4 1926.93 1927.67 1928.16 1928.53 1928.94 1929.46 1929.94 1930.82 1931.82 1933.3 1935.48 1937.58 1939.58 1941.58 1943.59 1945.88 1948.13 1950.3 1952.46 1953.46 1953.18 1952.91 1954.91 1957.82 1960.68 1963.43 1965.5 1966.14 1966.78 1967.46 1968.09 1970.36 1971.26 1971.77 1973.4 1974.85 1976.09 1977.34 1978.59 1979.83 1981.08 1984.51 1988.67 1986.57 1984.11 1981.75 1979.39 1977.03 1974.67 1972.31 1969.9 1967.24 1964.59 1961.94 1959.29 1956.64 1953.99 1951.34 1948.69 1946.04 1943.38 1940.86 1938.37 1935.88 1933.39 1930.89 1928.4 1925.91 1923.46 1921.25 1919.03 1916.82 1914.6 1912.39 1910.18 1908.07 1906.13 1904.2 1902.36 1900.27 1897.94 1895.6 1893.27 1890.94 1888.6 1886.31 1884.47 1882.43 1880.31 1878.18 1876.06 1874.01 1872.4 1870.79 1869.17 1867.46 1865.23 1863.01 1860.79 1858.56 1856.34 1854.12 1851.89 1849.67 1846.96 1843.82 1840.69 1837.56 1834.42 1831.28 1828.14 1825.06 1822.43 1820.41 1818.58 1816.73 1814.67 1812.6 1810.42 1808.23 1806.05 1803.87 1801.84 1800.65 1799.46 1798.27 1797.07 1795.88 1794.69 1793.5 1792.3 1791.16 1790.27 1789.38 1788.49 1787.59 1786.29 1784.99 1783.69 1782.4 1781.27 1781.01 1780.74 1780.47 1780.21 1779.94 1779.46 1778.97 1778.49 1777.88 1776.67 1775.46 1774.26 1773.05 1771.85 1770.64 1769.43 1768.23 1766.47 1763.94 1761.35 1758.76 1756.17 1753.57 1750.98 1748.35 1745.61 1742.88 1740.06 1737.23 1734.4 1731.61 1728.85 1726.09 1723.27 1720.42 1717.47 1714.51 1713.51 1710.08 1706.65 1703.15 1699.65 1696.15 1694.81 1692.05 1689.17 1686.28 1683.38 1683.23 1685.75 1688.28 1689.16 1691.18 1694.49 1696.84 1698.85 1700.86 1702.85 1704.8 1706.75 1708.71 1710.66 1712.57 1714.26 1715.95 1717.64 1719.33 1721.02 1722.7 1724.39 1726.08 1727.77 1729.46 1731.11 1732.72 1734.41 1736.29 1738.17 1740.05 1741.93 1743.81 1745.11 1745.71 1746.27 1746.95 1747.63 1748.31 1749.0 1749.97 1750.94 1750.57 1750.21 1749.84 1749.48 1749.15 1748.85 1748.55 1748.24 1747.97 1747.81 1747.71 1747.71 1747.71 1747.71 1747.71 1747.71 1747.72 1747.72 1747.72 1747.73 1748.41 1749.09 1749.77 1750.45 1751.06 1751.53 1752.0 1752.47 1752.6 1752.65 1752.7 1752.74 1752.79 1752.87 1753.03 1753.18 1753.34 1753.49 1753.65 1753.81 1753.87 1753.91 1753.68 1752.86 1752.14 1751.8 1751.46 1751.12 1750.78 1750.43 1750.09 1749.55 1748.59 1747.62 1746.66 1745.69 1744.73 1744.48 1744.35 1744.22 1742.6 1740.42 1738.66 1737.03 1735.3 1732.87 1730.68 1729.43 1728.19 1726.87 1725.35 1724.06 1722.91 1721.74 1720.04 1718.22 1716.41 1714.59 1712.88
1777.56 1783.09 1787.31 1791.4 1794.31 1796.49 1799.63 1803.08 1806.53 1809.97 1813.42 1816.76 1820.06 1823.37 1826.66 1829.83 1833.26 1836.72 1840.17 1843.63 1847.09 1850.54 1854.0 1857.24 1859.44 1861.46 1862.77 1863.9 1865.03 1866.16 1867.29 1868.43 1869.48 1870.22 1871.02 1872.29 1873.72 1875.15 1876.57 1878.14 1879.86 1881.6 1883.61 1885.62 1887.64 1889.65 1891.67 1893.62 1895.05 1897.88 1901.16 1903.35 1905.66 1908.21 1911.01 1913.92 1916.3 1918.45 1920.86 1922.38 1922.17 1921.96 1921.92 1922.82 1923.7 1924.6 1925.15 1925.54 1925.92 1926.36 1927.16 1928.36 1929.81 1931.34 1933.57 1935.57 1937.57 1939.59 1941.88 1944.16 1946.41 1948.58 1949.41 1949.22 1948.99 1951.57 1954.47 1957.38 1960.3 1961.87 1962.56 1963.25 1963.93 1964.57 1965.22 1966.44 1967.69 1968.94 1970.19 1971.43 1972.68 1973.93 1975.17 1976.42 1978.64 1983.04 1987.04 1984.91 1982.55 1980.19 1977.83 1975.46 1973.1 1970.69 1968.04 1965.38 1962.73 1960.08 1957.43 1954.78 1952.13 1949.47 1946.83 1944.34 1941.85 1939.36 1936.86 1934.37 1931.88 1929.39 1926.89 1924.45 1922.24 1920.02 1917.81 1915.59 1913.38 1911.23 1909.28 1907.34 1905.41 1903.57 1901.72 1899.42 1897.09 1894.75 1892.42 1890.09 1887.92 1886.07 1884.04 1881.93 1879.81 1877.68 1875.56 1873.44 1871.83 1870.22 1868.49 1866.26 1864.04 1861.82 1859.59 1857.37 1855.05 1852.57 1850.1 1847.05 1843.85 1840.72 1837.59 1834.46 1831.33 1829.09 1826.99 1824.97 1822.95 1821.13 1819.15 1817.08 1815.02 1812.92 1810.74 1808.56 1806.37 1804.43 1803.5 1802.3 1801.11 1799.92 1798.73 1797.54 1796.34 1795.15 1794.02 1793.12 1792.23 1791.34 1790.45 1789.56 1788.31 1787.02 1785.72 1784.62 1784.35 1784.08 1783.82 1783.55 1783.29 1783.02 1782.54 1782.05 1781.42 1780.22 1779.01 1777.8 1776.6 1775.39 1774.18 1772.4 1770.58 1768.58 1766.14 1763.68 1761.16 1758.6 1756.04 1753.34 1750.54 1747.73 1744.92 1742.06 1739.19 1736.33 1733.52 1730.67 1727.77 1724.88 1721.97 1718.79 1715.56 1714.13 1710.96 1707.47 1703.97 1700.47 1696.96 1694.48 1692.65 1689.75 1686.87 1684.06 1686.14 1688.6 1689.88 1691.39 1694.24 1697.45 1699.49 1701.5 1703.45 1705.41 1707.36 1709.31 1711.27 1713.22 1715.12 1716.81 1718.5 1720.19 1721.88 1723.57 1725.26 1726.95 1728.64 1730.32 1732.01 1733.7 1735.39 1737.08 1738.76 1740.36 1741.97 1743.67 1745.55 1747.43 1748.98 1749.58 1750.31 1751.05 1751.78 1752.52 1753.21 1753.87 1753.51 1753.21 1752.9 1752.6 1752.3 1752.0 1751.69 1751.39 1751.12 1750.97 1750.81 1750.66 1750.65 1750.65 1750.65 1750.65 1750.65 1750.65 1750.65 1750.98 1751.66 1752.34 1753.02 1753.7 1754.3 1754.77 1755.24 1755.33 1755.38 1755.42 1755.47 1755.51 1755.56 1755.64 1755.8 1755.96 1756.11 1756.27 1756.43 1756.58 1756.74 1756.84 1756.58 1755.92 1755.58 1755.24 1754.9 1754.56 1754.22 1753.88 1753.54 1752.98 1752.01 1751.05 1750.08 1749.29 1749.16 1749.03 1748.9 1748.77 1746.78 1744.36 1742.56 1740.15 1737.69 1735.23 1733.42 1732.24 1731.06 1729.72 1728.17 1726.76 1725.38 1723.56 1721.75 1719.93 1718.12 1716.3 1714.6
1774.87 1779.08 1783.3 1787.51 1791.73 1794.6 1798.03 1801.44 1804.75 1808.05 1811.36 1814.67 1817.97 1821.28 1824.56 1827.57 1830.91 1834.31 1837.76 1841.22 1844.68 1848.13 1851.59 1854.65 1857.09 1858.86 1859.35 1860.51 1861.55 1862.69 1863.82 1864.95 1866.01 1866.15 1867.06 1868.49 1869.93 1871.36 1872.79 1874.21 1875.86 1877.61 1879.62 1881.64 1883.65 1885.67 1887.12 1888.55 1889.98 1893.56 1898.34 1900.53 1902.72 1904.91 1907.09 1909.55 1911.61 1913.36 1915.12 1916.64 1916.75 1916.87 1917.62 1918.91 1920.1 1920.68 1921.39 1922.14 1922.53 1923.06 1924.12 1925.24 1926.4 1927.79 1929.39 1931.56 1933.56 1935.59 1937.87 1940.16 1942.44 1944.7 1945.31 1945.24 1945.38 1947.91 1950.87 1953.83 1956.77 1957.85 1958.51 1959.16 1959.78 1960.38 1961.25 1962.24 1963.51 1964.77 1966.03 1967.29 1968.55 1969.81 1971.07 1972.33 1973.94 1977.78 1982.94 1984.53 1982.5 1980.47 1978.42 1976.26 1973.9 1971.48 1968.83 1966.18 1963.52 1960.76 1957.98 1955.2 1952.42 1949.68 1947.44 1945.32 1942.83 1940.34 1937.85 1935.35 1932.86 1930.37 1927.88 1925.44 1923.23 1921.02 1918.8 1916.59 1914.38 1912.44 1910.49 1908.54 1906.62 1904.78 1902.93 1900.9 1898.57 1896.24 1893.9 1891.57 1889.54 1887.67 1885.64 1883.55 1881.43 1879.3 1877.18 1875.05 1872.93 1871.26 1869.52 1867.29 1865.07 1862.84 1860.43 1857.95 1855.48 1853.01 1850.39 1847.14 1843.88 1840.74 1837.98 1835.84 1833.81 1831.69 1829.58 1827.51 1825.51 1823.64 1821.57 1819.5 1817.43 1815.37 1813.24 1811.06 1808.88 1806.97 1806.06 1805.15 1803.96 1802.77 1801.57 1800.38 1799.19 1798.0 1796.87 1795.98 1795.09 1794.2 1793.31 1792.41 1791.52 1790.34 1789.04 1787.96 1787.7 1787.43 1787.17 1786.9 1786.63 1786.37 1786.1 1785.61 1784.97 1783.76 1782.55 1781.35 1780.02 1778.21 1776.39 1774.57 1772.76 1770.67 1768.28 1765.81 1763.35 1760.83 1758.09 1755.34 1752.57 1749.76 1746.95 1744.09 1741.22 1738.31 1735.27 1732.39 1729.38 1726.12 1722.84 1719.56 1716.28 1714.26 1711.7 1708.18 1704.67 1701.19 1697.72 1694.24 1693.22 1690.37 1687.56 1686.86 1689.04 1690.59 1691.7 1694.52 1697.34 1700.14 1702.1 1704.06 1706.01 1707.96 1709.92 1711.87 1713.82 1715.78 1717.67 1719.36 1721.05 1722.74 1724.43 1726.12 1727.81 1729.5 1731.19 1732.88 1734.57 1736.26 1737.94 1739.63 1741.32 1743.01 1744.7 1746.39 1748.01 1749.62 1751.22 1752.86 1753.58 1754.26 1754.95 1755.62 1756.23 1756.7 1756.66 1756.36 1756.05 1755.75 1755.45 1755.15 1754.84 1754.54 1754.27 1754.12 1753.97 1753.82 1753.67 1753.58 1753.58 1753.58 1753.58 1753.58 1753.58 1754.23 1754.91 1755.59 1756.27 1756.94 1757.55 1758.01 1758.06 1758.1 1758.15 1758.19 1758.24 1758.29 1758.33 1758.42 1758.58 1758.73 1758.89 1759.05 1759.2 1759.36 1759.52 1759.67 1759.7 1759.36 1759.02 1758.68 1758.34 1758.0 1757.66 1757.32 1756.98 1756.4 1755.44 1754.47 1753.98 1753.85 1753.72 1753.59 1753.46 1753.33 1750.37 1747.62 1745.15 1742.69 1740.23 1737.94 1736.49 1735.14 1733.95 1732.58 1731.02 1729.2 1727.08 1725.27 1723.45 1721.64 1719.82 1718.01 1716.32
1771.07 1775.44 1779.82 1784.19 1788.51 1792.71 1796.04 1799.35 1802.66 1805.96 1809.27 1812.58 1815.88 1819.19 1822.46 1825.47 1828.62 1831.98 1835.35 1838.81 1842.27 1845.72 1849.18 1852.05 1854.62 1855.76 1856.27 1856.83 1858.19 1859.27 1860.34 1861.47 1862.54 1862.69 1863.84 1864.99 1866.24 1867.56 1869.0 1870.43 1871.87 1873.62 1875.64 1877.65 1879.19 1880.62 1882.05 1883.48 1884.91 1889.25 1895.52 1897.68 1899.73 1901.79 1903.85 1905.88 1907.33 1908.75 1910.18 1911.6 1911.95 1912.26 1913.58 1914.9 1916.09 1917.38 1917.97 1918.55 1919.12 1920.18 1921.23 1922.29 1923.34 1924.48 1925.77 1927.46 1929.55 1931.58 1933.87 1936.15 1938.44 1940.78 1941.43 1941.56 1942.08 1944.61 1947.13 1949.96 1952.43 1953.03 1953.62 1954.56 1955.53 1956.49 1957.46 1958.46 1959.72 1960.98 1962.24 1963.5 1964.76 1966.02 1967.29 1968.92 1970.55 1973.45 1977.46 1981.47 1982.03 1979.99 1977.97 1975.96 1974.02 1971.86 1969.08 1966.3 1963.52 1960.73 1957.95 1955.17 1952.46 1950.13 1947.92 1945.86 1943.8 1941.32 1938.83 1936.34 1933.85 1931.35 1928.86 1926.43 1924.22 1922.01 1919.79 1917.58 1915.59 1913.64 1911.7 1909.75 1907.83 1905.98 1904.14 1902.3 1900.05 1897.72 1895.38 1893.05 1891.15 1889.27 1887.24 1885.18 1883.05 1880.93 1878.8 1876.68 1874.55 1872.43 1870.54 1868.28 1865.8 1863.33 1860.85 1858.38 1855.91 1853.44 1850.48 1847.22 1844.77 1842.51 1840.31 1838.27 1836.24 1834.21 1832.18 1830.07 1828.07 1826.06 1823.99 1821.92 1819.85 1817.78 1815.72 1813.57 1811.38 1809.5 1808.59 1807.68 1806.77 1805.61 1804.42 1803.23 1802.03 1800.84 1799.72 1798.83 1797.94 1797.05 1796.16 1795.27 1794.38 1793.48 1792.36 1791.31 1791.04 1790.78 1790.51 1790.25 1789.98 1789.71 1789.45 1789.17 1788.51 1787.31 1785.83 1784.02 1782.2 1780.39 1778.57 1776.75 1774.91 1772.75 1770.41 1767.95 1765.4 1762.7 1760.0 1757.3 1754.57 1751.8 1748.98 1746.11 1743.13 1740.08 1736.99 1733.81 1730.61 1727.4 1724.19 1720.73 1717.15 1714.56 1712.37 1708.88 1705.39 1701.9 1698.45 1695.02 1693.7 1691.06 1688.25 1689.78 1691.3 1692.09 1694.91 1697.74 1700.12 1702.55 1704.66 1706.62 1708.57 1710.52 1712.48 1714.43 1716.38 1718.34 1720.23 1721.92 1723.61 1725.3 1726.98 1728.67 1730.36 1732.05 1733.74 1735.43 1737.12 1738.81 1740.5 1742.19 1743.88 1745.57 1747.26 1748.94 1750.63 1752.32 1754.01 1755.65 1756.5 1757.11 1757.72 1758.31 1758.79 1759.25 1759.71 1759.51 1759.2 1758.9 1758.6 1758.3 1757.99 1757.69 1757.43 1757.28 1757.12 1756.97 1756.82 1756.67 1756.52 1756.52 1756.52 1756.52 1756.8 1757.48 1758.16 1758.83 1759.52 1760.19 1760.74 1760.79 1760.83 1760.88 1760.92 1760.97 1761.01 1761.06 1761.1 1761.19 1761.35 1761.51 1761.67 1761.82 1761.98 1762.14 1762.29 1762.77 1762.95 1762.66 1762.37 1762.07 1761.78 1761.44 1761.1 1760.76 1760.42 1759.83 1758.86 1758.66 1758.53 1758.41 1758.28 1758.15 1758.02 1757.5 1753.71 1750.51 1747.7 1745.23 1742.78 1741.07 1739.63 1738.19 1736.85 1735.43 1733.79 1731.73 1729.44 1727.16 1725.16 1723.35 1721.53 1719.72 1718.03
1769.11 1773.43 1777.74 1782.06 1786.38 1790.56 1793.92 1797.26 1800.57 1803.87 1807.18 1810.48 1813.79 1817.1 1820.36 1823.37 1826.38 1829.74 1833.06 1836.4 1839.86 1843.31 1846.77 1849.45 1852.0 1852.96 1853.17 1853.64 1854.49 1855.86 1857.05 1858.03 1859.07 1859.98 1861.13 1862.28 1863.43 1864.58 1865.73 1866.88 1868.07 1869.64 1871.25 1872.69 1874.12 1875.58 1877.03 1878.48 1879.93 1885.09 1889.92 1894.11 1896.23 1898.27 1900.3 1901.91 1902.89 1903.86 1905.07 1906.5 1907.26 1908.31 1909.71 1910.87 1912.16 1913.47 1914.57 1915.26 1915.86 1917.02 1918.17 1919.33 1920.45 1921.51 1922.56 1923.75 1925.54 1927.58 1929.86 1932.15 1934.56 1936.97 1937.49 1937.72 1938.62 1940.92 1943.51 1946.19 1947.88 1948.84 1949.8 1950.77 1951.73 1952.7 1953.66 1954.67 1955.93 1957.19 1958.45 1959.71 1960.97 1962.25 1963.89 1965.53 1967.17 1969.11 1973.12 1977.13 1979.99 1979.77 1977.89 1976.11 1974.2 1971.83 1969.05 1966.27 1963.48 1960.7 1957.94 1955.25 1952.85 1950.59 1948.39 1946.33 1944.28 1942.22 1939.81 1937.32 1934.83 1932.34 1929.84 1927.43 1925.21 1923.0 1920.78 1918.74 1916.8 1914.85 1912.9 1910.96 1909.04 1907.19 1905.35 1903.51 1901.53 1899.2 1896.87 1894.53 1892.77 1890.87 1888.84 1886.8 1884.68 1882.55 1880.43 1878.3 1876.17 1874.05 1871.81 1869.42 1866.87 1864.31 1861.76 1859.21 1856.66 1854.16 1851.78 1849.4 1847.04 1844.81 1842.74 1840.71 1838.68 1836.65 1834.62 1832.58 1830.52 1828.47 1826.41 1824.34 1822.27 1820.2 1818.13 1816.07 1813.89 1812.04 1811.13 1810.22 1809.3 1808.39 1807.27 1806.07 1804.88 1803.69 1802.58 1801.68 1800.79 1799.9 1799.01 1798.12 1797.23 1796.34 1795.45 1794.65 1794.39 1794.12 1793.86 1793.57 1793.25 1792.92 1792.6 1792.27 1791.64 1789.83 1788.01 1786.19 1784.38 1782.56 1780.75 1778.93 1777.02 1774.84 1772.52 1769.97 1767.27 1764.57 1761.87 1759.17 1756.47 1753.77 1750.99 1747.9 1744.81 1741.71 1738.62 1735.47 1732.15 1728.56 1724.97 1721.35 1717.72 1715.17 1712.88 1709.43 1705.98 1702.53 1699.17 1695.86 1693.37 1691.76 1690.59 1691.93 1692.63 1695.1 1697.49 1699.87 1702.25 1704.68 1707.22 1709.18 1711.13 1713.08 1715.04 1716.99 1718.94 1720.9 1722.78 1724.47 1726.16 1727.85 1729.54 1731.23 1732.92 1734.6 1736.29 1737.98 1739.67 1741.36 1743.05 1744.74 1746.43 1748.12 1749.81 1751.5 1753.19 1754.88 1756.56 1758.24 1759.22 1759.83 1760.39 1760.89 1761.34 1761.8 1762.27 1762.66 1762.35 1762.05 1761.75 1761.45 1761.15 1760.84 1760.58 1760.43 1760.28 1760.12 1759.97 1759.82 1759.67 1759.52 1759.45 1759.45 1760.05 1760.73 1761.41 1762.03 1762.59 1763.16 1763.51 1763.56 1763.6 1763.65 1763.69 1763.74 1763.79 1763.83 1763.88 1763.97 1764.13 1764.28 1764.44 1764.6 1764.75 1765.03 1765.53 1766.03 1766.19 1765.9 1765.61 1765.32 1765.03 1764.73 1764.44 1764.15 1763.86 1763.48 1763.35 1763.22 1763.09 1762.96 1762.83 1762.7 1762.57 1760.73 1756.42 1753.38 1750.67 1747.78 1745.65 1744.21 1742.77 1741.37 1740.09 1738.19 1736.53 1734.25 1731.96 1729.68 1727.4 1725.11 1723.24 1721.42 1719.75
1766.98 1771.3 1775.61 1779.93 1784.25 1788.41 1791.77 1795.13 1798.47 1801.78 1805.09 1808.39 1811.7 1815.01 1818.26 1821.27 1824.28 1827.35 1830.87 1834.13 1837.45 1840.91 1844.24 1846.85 1848.89 1849.9 1850.25 1850.57 1850.91 1852.16 1853.52 1854.84 1855.17 1856.3 1857.42 1858.55 1859.68 1860.8 1861.93 1863.05 1864.01 1865.32 1866.53 1867.87 1869.31 1870.73 1872.17 1873.62 1875.08 1879.41 1883.61 1887.81 1892.01 1894.81 1896.88 1898.09 1898.95 1899.91 1900.9 1901.89 1903.01 1904.38 1905.77 1907.16 1908.56 1909.81 1910.94 1911.89 1912.62 1913.78 1914.94 1916.09 1917.24 1918.4 1919.56 1920.71 1921.79 1923.58 1925.92 1928.35 1930.77 1932.96 1933.38 1933.79 1935.06 1937.42 1939.78 1942.03 1943.59 1945.04 1946.01 1946.97 1947.94 1948.9 1949.86 1950.88 1952.14 1953.4 1954.66 1955.92 1957.22 1958.86 1960.5 1962.14 1963.78 1965.38 1968.79 1972.8 1975.3 1976.5 1976.64 1976.31 1974.22 1971.8 1969.02 1966.23 1963.45 1960.72 1958.03 1955.58 1953.32 1951.06 1948.86 1946.8 1944.75 1942.69 1940.64 1938.31 1935.81 1933.32 1930.83 1928.42 1926.2 1923.99 1921.89 1919.95 1918.0 1916.06 1914.11 1912.17 1910.25 1908.41 1906.56 1904.72 1902.87 1900.68 1898.35 1896.14 1894.38 1892.47 1890.44 1888.41 1886.3 1884.17 1882.05 1879.92 1877.78 1875.56 1873.3 1870.99 1868.59 1866.18 1863.67 1861.24 1858.83 1856.43 1854.03 1851.66 1849.34 1847.21 1845.18 1843.15 1841.12 1839.08 1836.88 1834.65 1832.5 1830.54 1828.59 1826.63 1824.68 1822.62 1820.55 1818.48 1816.39 1814.57 1813.66 1812.75 1811.84 1810.93 1810.02 1808.92 1807.73 1806.53 1805.43 1804.54 1803.65 1802.76 1801.86 1800.97 1800.08 1799.11 1797.93 1796.86 1796.28 1795.96 1795.63 1795.31 1794.99 1794.66 1794.34 1794.01 1793.51 1791.96 1790.17 1788.37 1786.56 1784.74 1782.93 1781.11 1779.13 1776.93 1773.81 1770.96 1768.27 1765.58 1762.9 1760.21 1757.52 1754.64 1751.47 1748.62 1745.86 1742.97 1739.98 1736.84 1733.21 1729.59 1725.96 1722.33 1718.7 1715.96 1713.12 1709.85 1706.58 1703.31 1700.03 1696.77 1693.7 1692.91 1692.52 1693.02 1694.85 1697.24 1699.62 1702.0 1704.38 1706.82 1709.38 1711.73 1713.69 1715.64 1717.6 1719.55 1721.5 1723.46 1725.33 1727.02 1728.71 1730.4 1732.09 1733.78 1735.47 1737.16 1738.85 1740.54 1742.22 1743.91 1745.6 1747.29 1748.98 1750.67 1752.36 1754.05 1755.74 1757.42 1759.09 1760.77 1761.92 1762.46 1762.99 1763.43 1763.89 1764.35 1764.81 1765.28 1765.51 1765.2 1764.9 1764.6 1764.3 1763.99 1763.73 1763.58 1763.43 1763.28 1763.13 1762.97 1762.82 1762.67 1762.52 1762.53 1763.1 1763.67 1764.23 1764.8 1765.37 1765.94 1766.27 1766.32 1766.37 1766.42 1766.47 1766.51 1766.56 1766.6 1766.65 1766.75 1766.9 1767.06 1767.22 1767.37 1767.79 1768.29 1768.8 1769.3 1769.43 1769.14 1768.85 1768.56 1768.27 1767.98 1767.69 1767.4 1767.32 1768.41 1768.49 1768.13 1767.78 1767.53 1767.39 1767.26 1766.27 1761.83 1759.33 1755.76 1753.05 1750.72 1749.26 1747.97 1746.69 1745.41 1742.97 1740.92 1739.05 1736.77 1734.49 1732.2 1729.92 1727.64 1725.35 1723.13 1721.47
1764.92 1769.17 1773.48 1777.8 1782.12 1786.25 1789.62 1792.98 1796.34 1799.69 1803.0 1806.3 1809.61 1812.92 1816.17 1819.18 1822.19 1825.19 1828.48 1832.0 1835.21 1838.5 1841.64 1844.26 1846.41 1847.36 1847.74 1847.61 1847.92 1848.45 1849.82 1850.95 1850.9 1852.03 1853.16 1854.28 1855.41 1856.53 1857.66 1858.42 1859.75 1861.06 1862.29 1863.5 1864.68 1866.01 1867.44 1868.87 1870.31 1874.15 1878.13 1881.98 1885.78 1889.9 1893.36 1894.36 1895.24 1896.06 1896.91 1897.88 1899.23 1900.65 1902.08 1903.47 1904.8 1906.13 1907.46 1908.45 1909.39 1910.54 1911.7 1912.85 1914.01 1915.16 1916.32 1917.47 1918.76 1919.75 1922.09 1924.53 1926.94 1928.64 1929.28 1929.7 1931.2 1933.33 1935.66 1937.58 1939.09 1940.64 1942.2 1943.18 1944.14 1945.1 1946.07 1947.09 1948.35 1949.61 1950.87 1952.19 1953.83 1955.47 1957.11 1958.75 1960.39 1962.02 1964.45 1968.46 1970.79 1971.78 1972.26 1972.4 1973.71 1971.77 1968.99 1966.22 1963.5 1960.82 1958.31 1956.05 1953.79 1951.53 1949.33 1947.27 1945.22 1943.16 1941.11 1939.05 1936.8 1934.31 1931.81 1929.41 1927.19 1925.05 1923.1 1921.16 1919.21 1917.26 1915.32 1913.37 1911.46 1909.61 1907.77 1905.93 1904.08 1902.16 1899.83 1897.76 1895.98 1894.07 1892.05 1890.01 1887.92 1885.8 1883.67 1881.52 1879.3 1877.05 1874.78 1872.52 1870.22 1867.97 1865.72 1863.47 1861.1 1858.69 1856.29 1853.91 1851.68 1849.65 1847.62 1845.53 1843.31 1841.08 1838.85 1836.63 1834.48 1832.53 1830.57 1828.62 1826.66 1824.7 1822.75 1820.79 1818.83 1817.11 1816.2 1815.29 1814.38 1813.46 1812.55 1811.64 1810.57 1809.38 1808.28 1807.39 1806.5 1805.61 1804.72 1803.64 1802.46 1801.29 1800.11 1799.05 1798.23 1797.7 1797.37 1797.05 1796.73 1796.4 1796.08 1795.75 1795.29 1793.96 1792.29 1790.49 1788.7 1786.91 1785.1 1783.28 1780.87 1777.84 1774.62 1771.93 1769.25 1766.56 1763.87 1761.19 1758.19 1754.88 1751.83 1748.63 1745.95 1743.3 1740.53 1737.61 1734.59 1731.26 1727.63 1724.0 1718.48 1716.49 1713.42 1710.35 1707.28 1704.21 1701.14 1698.07 1695.0 1693.31 1694.02 1695.44 1696.99 1699.37 1701.75 1704.13 1706.52 1708.95 1711.52 1714.08 1716.25 1718.2 1720.16 1722.11 1724.06 1726.02 1727.89 1729.57 1731.26 1732.95 1734.64 1736.33 1738.02 1739.71 1741.4 1743.09 1744.78 1746.47 1748.16 1749.85 1751.54 1753.22 1754.91 1756.59 1758.27 1759.94 1761.62 1763.27 1764.54 1765.08 1765.53 1765.98 1766.44 1766.9 1767.36 1767.83 1768.29 1768.35 1768.05 1767.75 1767.45 1767.14 1766.89 1766.74 1766.58 1766.43 1766.28 1766.13 1765.98 1765.82 1765.67 1765.51 1765.88 1766.44 1767.01 1767.58 1768.15 1768.72 1769.03 1769.08 1769.13 1769.19 1769.24 1769.29 1769.33 1769.38 1769.42 1769.52 1769.68 1769.84 1770.05 1770.55 1771.05 1771.56 1772.06 1772.56 1772.68 1772.39 1772.09 1771.8 1771.51 1771.22 1770.93 1770.88 1771.22 1772.36 1773.69 1773.71 1773.37 1773.0 1772.65 1772.17 1767.73 1763.37 1760.91 1758.14 1756.21 1756.39 1755.47 1752.87 1750.73 1748.55 1745.73 1743.66 1741.58 1739.29 1737.01 1734.72 1732.44 1730.16 1727.77 1725.03 1722.86
1763.38 1767.17 1771.35 1775.67 1779.99 1784.1 1787.46 1790.82 1794.19 1797.55 1800.91 1804.21 1807.52 1810.83 1814.07 1817.08 1820.09 1823.1 1826.11 1829.6 1833.08 1836.28 1838.96 1841.48 1843.43 1844.45 1845.07 1845.03 1844.97 1844.57 1843.84 1846.48 1846.69 1847.76 1848.89 1850.01 1851.14 1851.9 1852.83 1854.16 1855.48 1856.79 1858.02 1859.25 1860.48 1861.61 1862.84 1864.18 1865.87 1869.85 1873.83 1877.81 1881.8 1885.78 1889.57 1890.52 1891.46 1892.4 1893.28 1894.29 1895.63 1896.98 1898.33 1899.72 1901.15 1902.57 1903.91 1905.01 1906.15 1907.3 1908.46 1909.55 1910.82 1912.11 1913.4 1914.54 1915.56 1916.55 1918.21 1920.63 1923.07 1924.23 1924.98 1925.61 1927.41 1929.45 1931.6 1933.14 1934.65 1936.17 1937.68 1939.25 1940.34 1941.31 1942.27 1943.3 1944.56 1945.82 1947.17 1948.81 1950.45 1952.09 1953.73 1955.37 1957.01 1958.65 1960.14 1964.12 1966.38 1967.16 1967.56 1968.4 1970.11 1971.73 1969.0 1966.28 1963.6 1961.04 1958.78 1956.51 1954.25 1951.99 1949.8 1947.74 1945.69 1943.63 1941.58 1939.52 1937.47 1935.29 1932.8 1930.4 1928.2 1926.25 1924.31 1922.36 1920.42 1918.45 1916.44 1914.43 1912.6 1910.78 1908.97 1907.14 1905.29 1903.45 1901.31 1899.37 1897.58 1895.67 1893.65 1891.61 1889.54 1887.4 1885.24 1883.03 1880.79 1878.54 1876.29 1874.04 1871.87 1869.71 1867.55 1865.4 1863.18 1860.93 1858.55 1856.18 1854.12 1851.96 1849.74 1847.51 1845.28 1843.06 1840.83 1838.6 1836.47 1834.51 1832.55 1830.6 1828.64 1826.69 1824.73 1822.78 1820.86 1819.53 1818.65 1817.77 1816.89 1816.0 1815.09 1814.18 1813.26 1812.23 1811.14 1810.24 1809.34 1808.17 1806.99 1805.82 1804.64 1803.47 1802.29 1801.24 1800.42 1799.7 1799.17 1798.79 1798.47 1798.14 1797.82 1797.49 1797.05 1795.82 1794.33 1792.61 1790.82 1789.03 1787.23 1784.59 1781.72 1778.69 1775.6 1772.91 1770.22 1767.54 1764.85 1761.74 1758.43 1755.12 1752.14 1749.0 1745.95 1743.28 1740.63 1737.85 1734.88 1731.92 1728.96 1724.8 1718.47 1717.82 1714.96 1711.84 1708.73 1705.61 1702.49 1699.38 1696.3 1695.49 1696.38 1697.86 1699.32 1701.5 1703.88 1706.27 1708.65 1711.09 1713.65 1716.21 1718.78 1720.76 1722.71 1724.67 1726.62 1728.57 1730.44 1732.13 1733.82 1735.51 1737.2 1738.89 1740.57 1742.26 1743.95 1745.64 1747.33 1749.02 1750.71 1752.4 1754.09 1755.77 1757.44 1759.12 1760.8 1762.47 1764.14 1765.67 1767.17 1767.63 1768.07 1768.53 1768.99 1769.45 1769.92 1770.38 1770.84 1771.3 1771.2 1770.9 1770.6 1770.3 1770.04 1769.89 1769.74 1769.59 1769.44 1769.28 1769.13 1768.97 1768.82 1768.66 1768.65 1769.22 1769.79 1770.36 1770.92 1771.49 1771.79 1771.84 1771.9 1771.95 1772.0 1772.05 1772.1 1772.15 1772.19 1772.3 1772.45 1772.81 1773.31 1773.81 1774.32 1774.82 1775.33 1775.83 1775.92 1775.63 1775.34 1775.05 1774.75 1774.46 1774.44 1774.78 1775.12 1776.31 1778.24 1778.88 1778.88 1778.63 1778.22 1773.73 1769.3 1764.88 1762.33 1761.52 1761.83 1762.07 1761.71 1758.58 1754.88 1751.32 1748.5 1746.38 1744.1 1741.81 1739.53 1737.23 1734.48 1731.74 1729.0 1726.26 1724.12
1761.97 1765.62 1769.41 1773.54 1777.86 1781.95 1785.31 1788.67 1792.03 1795.4 1798.76 1802.12 1805.43 1808.74 1811.97 1814.98 1817.99 1821.0 1824.01 1827.21 1830.73 1833.28 1835.37 1836.16 1836.94 1837.1 1837.43 1838.0 1837.37 1836.73 1837.76 1842.26 1842.5 1843.49 1844.62 1845.74 1845.96 1847.24 1848.56 1849.89 1851.22 1852.52 1853.75 1854.98 1856.22 1857.45 1858.59 1859.76 1861.99 1865.95 1869.91 1873.89 1877.88 1881.86 1885.72 1886.97 1888.13 1889.01 1889.9 1891.0 1892.31 1893.64 1894.99 1896.35 1897.7 1899.05 1900.4 1901.66 1902.87 1904.16 1905.45 1906.74 1908.03 1909.31 1910.33 1911.34 1912.36 1913.34 1914.38 1916.74 1918.98 1919.72 1920.62 1921.6 1923.64 1925.66 1927.42 1928.85 1930.28 1931.74 1933.24 1934.76 1936.29 1937.51 1938.48 1939.51 1940.77 1942.14 1943.78 1945.42 1947.06 1948.7 1950.34 1951.98 1953.62 1955.26 1956.82 1959.79 1961.97 1962.55 1962.96 1965.03 1967.08 1969.14 1969.06 1966.39 1963.76 1961.5 1959.24 1956.98 1954.72 1952.46 1950.27 1948.22 1946.16 1944.1 1942.05 1939.99 1937.94 1935.88 1933.78 1931.39 1929.41 1927.46 1925.45 1923.43 1921.42 1919.41 1917.39 1915.51 1913.7 1911.89 1910.08 1908.27 1906.45 1904.64 1902.8 1900.96 1899.09 1897.14 1895.08 1893.01 1890.98 1888.9 1886.74 1884.55 1882.32 1880.07 1877.82 1875.59 1873.43 1871.27 1869.11 1866.95 1864.79 1862.63 1860.47 1858.4 1856.17 1853.94 1851.71 1849.49 1847.26 1845.03 1842.81 1840.58 1838.45 1836.49 1834.54 1832.58 1830.63 1828.67 1826.71 1824.8 1823.23 1821.92 1821.04 1820.15 1819.27 1818.39 1817.51 1816.63 1815.75 1814.86 1813.87 1812.7 1811.52 1810.35 1809.17 1808.0 1806.82 1805.65 1804.47 1803.43 1802.61 1801.79 1801.19 1800.64 1800.21 1799.88 1799.56 1799.23 1798.82 1797.62 1796.25 1794.67 1792.94 1790.75 1788.06 1785.38 1782.56 1779.55 1776.57 1773.89 1771.2 1768.51 1765.3 1761.99 1758.67 1755.36 1752.44 1749.38 1746.17 1743.28 1740.62 1737.77 1734.81 1731.86 1728.47 1724.89 1720.87 1718.83 1716.55 1713.44 1710.32 1707.43 1704.62 1701.24 1697.78 1697.66 1698.82 1700.28 1701.74 1703.63 1706.02 1708.4 1710.78 1713.23 1715.79 1718.35 1720.91 1723.32 1725.27 1727.23 1729.18 1731.13 1732.99 1734.68 1736.37 1738.06 1739.75 1741.44 1743.13 1744.82 1746.51 1748.19 1749.88 1751.57 1753.26 1754.94 1756.62 1758.3 1759.97 1761.65 1763.32 1765.0 1766.54 1768.07 1769.51 1770.17 1770.62 1771.08 1771.54 1772.0 1772.46 1772.93 1773.39 1773.85 1774.32 1774.05 1773.75 1773.44 1773.2 1773.05 1772.89 1772.74 1772.59 1772.44 1772.28 1772.12 1771.97 1771.81 1771.66 1772.0 1772.56 1773.13 1773.7 1774.27 1774.55 1774.6 1774.66 1774.71 1774.76 1774.81 1774.86 1774.92 1774.97 1775.07 1775.57 1776.07 1776.58 1777.08 1777.58 1778.09 1778.59 1779.1 1779.16 1778.87 1778.58 1778.29 1778.0 1777.99 1778.34 1778.68 1779.02 1780.26 1782.22 1783.69 1784.06 1784.04 1779.73 1775.19 1770.75 1767.24 1766.49 1766.58 1766.98 1767.27 1765.07 1761.73 1758.4 1754.82 1751.27 1748.9 1746.62 1743.94 1741.2 1738.46 1735.71 1732.97 1730.23 1727.48 1725.38
1760.71 1764.33 1767.96 1771.65 1775.73 1779.8 1783.16 1786.52 1789.88 1793.24 1796.6 1799.96 1803.33 1806.65 1809.87 1812.88 1815.89 1818.9 1821.91 1824.92 1827.02 1827.81 1828.6 1829.39 1830.17 1830.33 1830.03 1830.38 1830.24 1829.33 1832.28 1836.63 1838.32 1839.22 1839.91 1840.32 1841.65 1842.97 1844.3 1845.63 1846.95 1848.26 1849.49 1850.72 1851.95 1853.18 1854.41 1855.57 1858.75 1862.72 1866.69 1870.65 1874.61 1878.57 1881.86 1883.18 1884.41 1885.64 1887.2 1888.38 1889.08 1890.32 1891.66 1893.01 1894.36 1895.71 1897.06 1898.66 1900.09 1901.38 1902.67 1903.96 1905.09 1906.11 1907.13 1908.14 1909.16 1910.14 1911.01 1912.88 1914.67 1915.71 1916.64 1917.85 1919.84 1921.53 1923.23 1924.66 1926.09 1927.53 1928.96 1930.4 1931.84 1933.35 1934.68 1935.72 1937.11 1938.75 1940.39 1942.03 1943.67 1945.31 1946.95 1948.59 1950.23 1951.87 1953.48 1955.45 1957.56 1957.93 1960.34 1963.12 1965.1 1967.07 1968.76 1966.52 1964.23 1961.97 1959.71 1957.45 1955.19 1952.93 1950.74 1948.69 1946.63 1944.58 1942.52 1940.46 1938.41 1936.35 1934.35 1932.4 1930.43 1928.41 1926.4 1924.39 1922.37 1920.36 1918.42 1916.61 1914.8 1912.99 1911.18 1909.37 1907.59 1905.83 1904.06 1902.26 1900.41 1898.45 1896.38 1894.33 1892.31 1890.3 1888.22 1886.06 1883.85 1881.6 1879.35 1877.14 1874.98 1872.82 1870.66 1868.5 1866.34 1864.21 1862.1 1860.06 1858.13 1855.92 1853.69 1851.46 1849.24 1847.01 1844.78 1842.55 1840.43 1838.48 1836.52 1834.56 1832.61 1830.65 1828.72 1827.16 1825.6 1824.3 1823.42 1822.54 1821.66 1820.78 1819.89 1819.01 1818.13 1817.08 1815.9 1814.88 1813.7 1812.53 1811.35 1810.18 1809.01 1807.83 1806.66 1805.62 1804.8 1803.98 1803.16 1802.67 1802.11 1801.62 1801.3 1800.97 1800.59 1799.42 1798.14 1796.65 1794.17 1791.53 1788.85 1786.17 1783.41 1780.4 1777.55 1774.86 1772.16 1768.85 1765.54 1762.23 1758.92 1755.6 1752.75 1749.74 1746.54 1743.33 1740.61 1737.72 1734.68 1731.1 1727.52 1724.29 1721.72 1719.42 1718.99 1716.18 1712.99 1709.55 1706.35 1702.9 1699.33 1699.79 1701.23 1702.69 1704.15 1705.77 1708.15 1710.53 1712.91 1715.36 1717.93 1720.49 1723.05 1725.61 1727.83 1729.79 1731.74 1733.69 1735.54 1737.23 1738.92 1740.61 1742.3 1743.99 1745.68 1747.37 1749.06 1750.75 1752.44 1754.12 1755.8 1757.47 1759.15 1760.82 1762.5 1764.17 1765.85 1767.41 1768.94 1770.37 1771.8 1772.71 1773.16 1773.63 1774.09 1774.55 1775.02 1775.48 1775.94 1776.4 1776.87 1777.2 1776.9 1776.59 1776.35 1776.2 1776.05 1775.9 1775.74 1775.58 1775.43 1775.27 1775.12 1774.96 1774.8 1774.77 1775.34 1775.91 1776.48 1777.05 1777.31 1777.37 1777.42 1777.47 1777.52 1777.57 1777.63 1777.68 1777.76 1778.25 1778.83 1779.34 1779.84 1780.35 1780.85 1781.35 1781.86 1782.36 1782.4 1782.11 1781.82 1781.53 1781.55 1781.89 1782.23 1782.58 1782.92 1784.2 1786.17 1788.08 1788.93 1785.73 1781.16 1776.64 1772.19 1771.6 1771.21 1771.64 1772.12 1770.82 1767.48 1764.14 1760.72 1757.26 1753.81 1750.66 1747.91 1745.17 1742.43 1739.68 1736.94 1734.2 1731.45 1728.71 1726.64
1759.41 1763.05 1766.69 1770.33 1773.96 1777.64 1781.0 1784.37 1787.73 1791.09 1794.45 1797.81 1801.17 1804.54 1807.77 1810.78 1813.68 1816.54 1819.39 1820.64 1820.25 1821.04 1821.83 1822.62 1823.27 1823.43 1823.26 1822.97 1823.29 1822.49 1825.69 1829.57 1833.44 1833.98 1834.73 1836.05 1837.38 1838.71 1840.04 1841.36 1842.69 1843.99 1845.22 1846.45 1847.68 1848.91 1850.17 1852.15 1855.65 1859.5 1863.46 1867.43 1871.39 1874.63 1877.68 1879.53 1880.9 1882.31 1884.54 1885.77 1886.44 1887.15 1888.38 1889.67 1891.02 1892.37 1893.74 1895.62 1897.3 1898.59 1899.86 1900.88 1901.89 1902.91 1903.93 1904.94 1905.96 1906.94 1907.81 1909.08 1910.56 1911.64 1912.66 1914.29 1915.81 1917.36 1919.04 1920.47 1921.91 1923.34 1924.78 1926.21 1927.64 1929.07 1930.51 1932.1 1933.73 1935.37 1937.01 1938.65 1940.29 1941.92 1943.56 1945.2 1946.84 1948.48 1950.11 1951.58 1953.14 1955.4 1957.99 1960.66 1963.24 1965.21 1966.66 1966.9 1964.7 1962.44 1960.17 1957.91 1955.65 1953.39 1951.21 1949.16 1947.1 1945.05 1942.99 1940.94 1938.99 1937.18 1935.3 1933.19 1931.24 1929.33 1927.35 1925.34 1923.32 1921.34 1919.53 1917.72 1915.91 1914.11 1912.32 1910.58 1908.85 1907.09 1905.32 1903.56 1901.72 1899.75 1897.69 1895.66 1893.65 1891.63 1889.62 1887.55 1885.37 1883.14 1880.88 1878.7 1876.54 1874.38 1872.22 1870.08 1867.97 1865.86 1863.75 1861.71 1859.78 1857.84 1855.67 1853.44 1851.21 1848.98 1846.76 1844.53 1842.42 1840.46 1838.5 1836.55 1834.59 1832.65 1831.09 1829.53 1827.97 1826.69 1825.8 1824.92 1824.04 1823.16 1822.28 1821.4 1820.36 1819.02 1817.84 1816.89 1815.89 1814.71 1813.54 1812.36 1811.19 1810.01 1808.84 1807.81 1806.99 1806.17 1805.35 1804.6 1804.15 1803.58 1803.04 1802.71 1802.35 1801.22 1799.81 1797.31 1794.79 1792.24 1789.63 1786.95 1784.25 1781.22 1778.52 1775.72 1772.41 1769.09 1765.78 1762.47 1759.16 1755.84 1753.06 1750.11 1746.91 1743.7 1740.63 1737.31 1734.46 1731.43 1728.48 1725.72 1723.67 1721.67 1720.28 1718.84 1715.37 1711.94 1708.51 1704.93 1701.3 1702.19 1703.65 1705.11 1706.57 1708.03 1710.28 1712.66 1715.05 1717.5 1720.06 1722.62 1725.19 1727.75 1730.31 1732.35 1734.3 1736.25 1738.1 1739.79 1741.48 1743.17 1744.85 1746.54 1748.23 1749.92 1751.61 1753.29 1754.97 1756.65 1758.32 1760.0 1761.67 1763.35 1765.03 1766.7 1768.27 1769.8 1771.23 1772.66 1774.09 1775.26 1775.71 1776.18 1776.64 1777.1 1777.56 1778.03 1778.49 1778.95 1779.42 1779.88 1780.05 1779.74 1779.51 1779.35 1779.2 1779.05 1778.89 1778.73 1778.58 1778.42 1778.27 1778.11 1777.95 1777.8 1778.12 1778.69 1779.25 1779.82 1780.08 1780.13 1780.18 1780.23 1780.28 1780.34 1780.39 1780.48 1780.74 1781.24 1781.89 1782.54 1783.11 1783.61 1784.12 1784.62 1785.12 1785.63 1785.65 1785.36 1785.06 1785.11 1785.45 1785.79 1786.13 1786.47 1786.82 1788.15 1790.11 1792.08 1790.78 1787.47 1783.09 1778.53 1776.86 1776.33 1776.22 1776.69 1775.33 1772.57 1769.11 1765.66 1762.2 1758.75 1755.29 1752.14 1749.17 1746.4 1743.65 1740.91 1738.17 1735.42 1732.68 1729.94 1727.9
1757.86 1761.46 1764.98 1768.7 1772.88 1775.84 1778.93 1782.29 1785.65 1789.01 1792.37 1795.73 1799.09 1802.45 1805.84 1808.68 1811.37 1814.12 1815.75 1814.68 1813.78 1814.27 1815.06 1815.85 1816.37 1816.53 1816.49 1816.19 1815.91 1815.64 1819.44 1822.6 1825.77 1828.58 1830.27 1831.79 1833.12 1834.44 1835.77 1837.1 1838.43 1839.72 1840.95 1842.19 1843.51 1844.86 1846.21 1849.35 1852.74 1856.28 1860.24 1864.16 1867.31 1870.15 1872.9 1875.57 1877.02 1879.02 1881.83 1883.17 1883.83 1884.49 1885.23 1886.46 1887.69 1889.03 1890.93 1892.83 1894.52 1895.64 1896.66 1897.68 1898.69 1899.71 1900.73 1901.74 1902.76 1903.73 1904.61 1905.36 1906.66 1907.86 1909.06 1910.37 1911.77 1913.2 1914.85 1916.29 1917.72 1919.15 1920.59 1922.02 1923.61 1925.27 1926.93 1928.63 1930.43 1932.12 1933.7 1935.29 1936.91 1938.54 1940.18 1941.82 1943.46 1945.1 1946.73 1948.25 1950.65 1953.24 1955.84 1958.44 1961.04 1963.05 1964.28 1965.52 1964.69 1962.74 1960.64 1958.38 1956.12 1953.86 1951.69 1949.63 1947.57 1945.52 1943.63 1941.82 1940.01 1938.2 1936.11 1933.99 1932.0 1930.08 1928.17 1926.25 1924.28 1922.44 1920.65 1918.86 1917.07 1915.28 1913.5 1911.78 1910.05 1908.33 1906.58 1904.82 1903.02 1901.06 1899.01 1896.99 1894.98 1892.97 1890.95 1888.94 1886.87 1884.67 1882.42 1880.25 1878.09 1875.94 1873.83 1871.72 1869.61 1867.5 1865.39 1863.36 1861.43 1859.49 1857.56 1855.42 1853.19 1850.96 1848.73 1846.51 1844.4 1842.44 1840.49 1838.53 1836.58 1835.02 1833.46 1831.9 1830.33 1829.07 1828.19 1827.31 1826.43 1825.54 1824.66 1823.64 1822.3 1820.95 1819.78 1818.83 1817.89 1816.89 1815.72 1814.54 1813.37 1812.19 1811.02 1810.0 1809.18 1808.36 1807.54 1806.72 1806.08 1805.63 1805.05 1804.47 1804.12 1802.75 1800.26 1797.76 1795.26 1792.76 1790.26 1787.71 1785.05 1782.19 1779.27 1775.96 1772.65 1769.33 1766.02 1762.71 1759.4 1756.14 1753.36 1750.49 1747.28 1744.07 1740.84 1737.91 1735.05 1732.34 1730.13 1728.06 1725.85 1723.78 1721.61 1721.0 1717.96 1714.3 1710.71 1707.11 1703.44 1704.6 1706.06 1707.53 1708.99 1710.45 1712.41 1714.79 1717.18 1719.64 1722.2 1724.76 1727.32 1729.88 1732.44 1734.91 1736.86 1738.81 1740.65 1742.34 1744.03 1745.72 1747.41 1749.1 1750.79 1752.47 1754.15 1755.82 1757.5 1759.17 1760.85 1762.53 1764.2 1765.88 1767.55 1769.14 1770.66 1772.09 1773.52 1774.95 1776.38 1777.8 1778.26 1778.73 1779.19 1779.65 1780.11 1780.58 1781.04 1781.5 1781.97 1782.43 1782.89 1782.9 1782.66 1782.51 1782.35 1782.2 1782.04 1781.88 1781.73 1781.57 1781.42 1781.26 1781.1 1780.95 1780.89 1781.46 1782.03 1782.6 1782.84 1782.89 1782.94 1782.99 1783.05 1783.1 1783.19 1783.46 1783.72 1784.23 1784.88 1785.53 1786.18 1786.82 1787.38 1787.89 1788.39 1788.89 1788.89 1788.6 1788.67 1789.01 1789.35 1789.69 1790.03 1790.37 1790.71 1792.09 1794.05 1795.24 1792.36 1788.95 1785.03 1782.53 1781.87 1780.98 1779.58 1778.47 1776.05 1773.42 1770.6 1767.14 1763.69 1760.23 1756.78 1753.63 1750.67 1747.7 1744.88 1742.14 1739.4 1736.65 1733.91 1731.17 1729.16
1755.66 1759.76 1763.94 1768.12 1771.32 1774.24 1777.22 1780.28 1783.59 1786.95 1790.31 1793.67 1797.03 1800.39 1803.78 1807.06 1809.86 1811.78 1810.21 1808.83 1807.82 1807.5 1808.29 1809.08 1809.47 1809.63 1809.72 1809.42 1809.11 1809.31 1812.5 1815.7 1818.71 1821.59 1823.54 1825.25 1826.96 1828.67 1830.38 1832.09 1833.8 1835.48 1836.81 1838.13 1839.46 1840.78 1843.97 1847.17 1850.24 1853.34 1856.93 1859.72 1862.46 1865.2 1867.94 1870.69 1872.97 1875.48 1878.73 1880.57 1881.23 1881.89 1882.55 1883.31 1884.53 1886.35 1888.21 1889.8 1891.23 1892.33 1893.44 1894.48 1895.49 1896.51 1897.53 1898.55 1899.56 1900.53 1901.29 1902.28 1903.42 1904.58 1905.81 1906.82 1907.8 1909.13 1910.67 1912.1 1913.53 1915.14 1916.8 1918.46 1920.12 1921.77 1923.43 1925.14 1926.94 1928.73 1930.49 1932.15 1933.73 1935.3 1936.88 1938.49 1940.11 1941.73 1943.35 1945.59 1948.14 1950.69 1953.25 1955.8 1958.35 1960.33 1961.65 1962.97 1964.26 1962.55 1960.56 1958.58 1956.58 1954.32 1952.16 1950.1 1948.27 1946.46 1944.65 1942.84 1941.03 1939.07 1936.93 1934.81 1932.79 1930.84 1928.98 1927.19 1925.4 1923.61 1921.82 1920.03 1918.24 1916.45 1914.7 1912.98 1911.25 1909.53 1907.81 1906.08 1904.31 1902.36 1900.34 1898.32 1896.31 1894.3 1892.29 1890.27 1888.26 1886.19 1883.97 1881.81 1879.69 1877.58 1875.47 1873.36 1871.26 1869.15 1867.04 1865.01 1863.07 1861.14 1859.21 1857.27 1855.17 1852.94 1850.71 1848.48 1846.38 1844.43 1842.47 1840.51 1838.95 1837.39 1835.83 1834.27 1832.7 1831.45 1830.57 1829.69 1828.81 1827.93 1826.92 1825.57 1824.23 1822.88 1821.72 1820.78 1819.83 1818.88 1817.9 1816.72 1815.55 1814.37 1813.2 1812.19 1811.37 1810.55 1809.73 1808.91 1808.09 1807.57 1807.1 1806.52 1805.59 1803.11 1800.62 1798.13 1795.65 1793.16 1790.67 1788.19 1785.7 1782.82 1779.51 1776.2 1772.89 1769.57 1766.26 1762.95 1759.64 1756.45 1753.67 1750.86 1747.65 1744.42 1741.61 1738.97 1736.59 1734.35 1732.1 1729.99 1727.82 1725.65 1723.48 1721.44 1720.38 1716.8 1713.1 1709.39 1705.69 1707.02 1708.48 1709.94 1711.4 1712.86 1714.54 1716.93 1719.31 1721.77 1724.33 1726.9 1729.46 1732.02 1734.58 1737.14 1739.42 1741.37 1743.2 1744.89 1746.58 1748.27 1749.96 1751.65 1753.32 1755.0 1756.67 1758.35 1760.03 1761.7 1763.38 1765.05 1766.73 1768.4 1770.01 1771.52 1772.95 1774.38 1775.81 1777.24 1778.67 1780.08 1780.74 1781.21 1781.69 1782.16 1782.63 1783.1 1783.58 1784.05 1784.52 1784.98 1785.44 1785.9 1785.81 1785.66 1785.5 1785.34 1785.19 1785.03 1784.88 1784.72 1784.56 1784.41 1784.25 1784.1 1783.94 1784.24 1784.81 1785.37 1785.6 1785.65 1785.7 1785.75 1785.81 1785.91 1786.17 1786.43 1786.69 1787.21 1787.86 1788.51 1789.16 1789.81 1790.46 1791.11 1791.66 1792.16 1792.13 1792.22 1792.56 1792.91 1793.25 1793.59 1793.93 1794.27 1794.61 1795.66 1796.5 1797.34 1794.77 1790.96 1787.7 1786.36 1785.03 1783.43 1781.69 1779.39 1776.77 1774.14 1771.51 1768.63 1765.17 1761.72 1758.26 1755.13 1752.17 1749.2 1746.23 1743.36 1740.62 1737.88 1735.14 1732.39 1730.43
1755.0 1759.18 1763.36 1766.83 1769.71 1772.63 1775.61 1778.6 1781.66 1784.9 1788.26 1791.62 1794.98 1798.34 1801.71 1805.17 1807.96 1806.43 1804.88 1803.31 1801.9 1800.97 1801.52 1802.31 1802.57 1802.73 1802.89 1802.65 1802.35 1803.07 1805.9 1808.73 1811.56 1814.47 1816.81 1818.62 1820.46 1822.3 1824.59 1827.62 1829.01 1830.21 1831.96 1833.46 1834.87 1836.28 1842.25 1845.53 1848.79 1852.0 1853.89 1856.0 1858.27 1860.8 1863.38 1866.06 1868.74 1871.78 1875.06 1877.7 1878.36 1879.05 1879.73 1880.41 1881.42 1883.01 1884.6 1886.2 1887.61 1888.72 1889.82 1890.93 1892.03 1893.13 1894.24 1895.34 1896.36 1897.29 1898.47 1899.5 1900.28 1901.48 1902.61 1903.57 1904.53 1905.48 1906.67 1908.33 1909.99 1911.65 1913.31 1914.96 1916.62 1918.28 1919.94 1921.65 1923.44 1925.24 1927.04 1928.84 1930.51 1932.17 1933.76 1935.33 1936.91 1938.48 1940.37 1942.88 1945.42 1947.97 1950.53 1953.08 1955.63 1957.58 1958.9 1960.22 1961.54 1962.52 1960.53 1958.53 1956.53 1954.56 1952.92 1951.1 1949.29 1947.48 1945.67 1943.86 1942.0 1939.9 1937.74 1935.66 1933.75 1931.93 1930.15 1928.36 1926.57 1924.78 1922.99 1921.2 1919.4 1917.62 1915.9 1914.17 1912.45 1910.73 1909.01 1907.28 1905.56 1903.68 1901.67 1899.66 1897.64 1895.62 1893.6 1891.58 1889.56 1887.53 1885.56 1883.45 1881.34 1879.23 1877.12 1875.01 1872.9 1870.79 1868.68 1866.66 1864.72 1862.79 1860.86 1858.92 1856.99 1854.91 1852.69 1850.46 1848.36 1846.41 1844.45 1842.88 1841.32 1839.76 1838.19 1836.63 1835.07 1833.84 1832.96 1832.07 1831.19 1830.19 1828.85 1827.5 1826.16 1824.82 1823.66 1822.72 1821.77 1820.82 1819.88 1818.9 1817.73 1816.55 1815.38 1814.38 1813.56 1812.74 1811.92 1811.1 1810.28 1809.49 1809.05 1808.36 1805.92 1803.46 1800.97 1798.49 1796.0 1793.51 1791.03 1788.54 1785.97 1782.86 1779.66 1776.44 1773.13 1769.82 1766.5 1763.19 1759.88 1756.76 1753.97 1751.19 1748.02 1745.23 1742.95 1740.64 1738.35 1736.2 1734.03 1731.86 1729.72 1727.61 1725.34 1723.06 1722.11 1719.03 1715.36 1711.75 1708.14 1709.4 1710.9 1712.36 1713.82 1715.28 1716.74 1719.06 1721.44 1723.91 1726.47 1729.03 1731.59 1734.16 1736.72 1739.28 1741.84 1743.93 1745.76 1747.44 1749.13 1750.82 1752.5 1754.17 1755.85 1757.53 1759.2 1760.88 1762.55 1764.23 1765.9 1767.58 1769.25 1770.87 1772.38 1773.81 1775.24 1776.67 1778.1 1779.53 1780.95 1782.34 1783.2 1783.68 1784.15 1784.62 1785.09 1785.57 1786.04 1786.51 1786.98 1787.45 1787.92 1788.39 1788.72 1788.75 1788.65 1788.49 1788.34 1788.18 1788.03 1787.87 1787.71 1787.56 1787.4 1787.24 1787.09 1787.01 1787.58 1788.15 1788.36 1788.41 1788.46 1788.52 1788.62 1788.89 1789.15 1789.41 1789.67 1790.2 1790.85 1791.5 1792.15 1792.8 1793.45 1794.1 1794.75 1795.4 1795.77 1796.02 1796.27 1796.52 1796.77 1797.01 1797.26 1797.51 1797.76 1798.13 1798.88 1799.63 1797.03 1793.26 1790.82 1789.09 1787.55 1785.34 1782.83 1780.17 1777.5 1774.85 1772.22 1769.6 1766.66 1763.2 1759.75 1756.63 1753.67 1750.7 1747.73 1744.77 1741.85 1739.11 1736.36 1733.62 1731.69
1754.42 1758.6 1762.34 1765.22 1768.11 1771.03 1774.01 1776.99 1779.99 1783.04 1786.2 1789.56 1792.92 1796.28 1799.64 1803.18 1802.56 1801.04 1799.5 1797.97 1796.41 1795.01 1794.75 1795.51 1795.67 1795.83 1795.99 1795.88 1795.39 1797.34 1800.11 1802.96 1805.74 1808.34 1810.85 1813.14 1815.96 1819.02 1821.43 1822.62 1823.81 1825.01 1826.3 1828.36 1830.01 1833.62 1840.21 1844.6 1847.77 1849.97 1851.61 1853.71 1855.82 1857.92 1860.14 1862.51 1865.05 1868.05 1870.85 1873.52 1875.18 1875.83 1876.5 1877.22 1877.97 1879.41 1881.0 1882.59 1883.99 1885.1 1886.2 1887.31 1888.41 1889.52 1890.62 1891.72 1892.79 1894.1 1895.82 1896.52 1897.38 1898.21 1899.15 1900.07 1900.99 1901.91 1903.12 1904.8 1906.48 1908.15 1909.81 1911.47 1913.13 1914.78 1916.44 1918.15 1919.95 1921.75 1923.55 1925.35 1927.15 1928.88 1930.54 1932.19 1933.79 1935.36 1937.75 1940.2 1942.71 1945.26 1947.81 1950.36 1952.91 1954.83 1956.15 1957.47 1958.76 1959.95 1960.61 1958.67 1956.73 1955.18 1953.7 1952.13 1950.37 1948.51 1946.69 1944.88 1942.85 1940.79 1938.77 1936.78 1934.89 1933.1 1931.31 1929.52 1927.73 1925.94 1924.15 1922.36 1920.57 1918.82 1917.1 1915.37 1913.65 1911.93 1910.18 1908.38 1906.58 1904.67 1902.65 1900.62 1898.6 1896.58 1894.56 1892.54 1890.51 1888.63 1886.95 1885.09 1882.98 1880.87 1878.76 1876.65 1874.54 1872.43 1870.32 1868.3 1866.37 1864.44 1862.5 1860.57 1858.64 1856.7 1854.66 1852.44 1850.35 1848.39 1846.81 1845.25 1843.69 1842.12 1840.56 1839.0 1837.44 1836.22 1835.34 1834.46 1833.47 1832.12 1830.78 1829.44 1828.09 1826.75 1825.61 1824.66 1823.71 1822.77 1821.82 1820.87 1819.91 1818.73 1817.56 1816.56 1815.75 1814.93 1814.11 1813.29 1812.47 1811.65 1810.98 1809.09 1806.25 1803.81 1801.33 1798.84 1796.36 1793.87 1791.38 1788.9 1785.96 1782.88 1779.67 1776.45 1773.24 1770.04 1766.74 1763.43 1760.12 1757.06 1754.28 1751.5 1748.98 1746.78 1744.59 1742.41 1740.24 1738.07 1735.96 1733.85 1731.71 1729.43 1727.32 1724.83 1722.63 1721.11 1717.59 1714.07 1710.55 1711.31 1713.28 1714.77 1716.23 1717.7 1719.16 1721.19 1723.57 1726.05 1728.61 1731.17 1733.73 1736.29 1738.85 1741.41 1743.98 1746.49 1748.31 1750.0 1751.67 1753.35 1755.03 1756.7 1758.38 1760.05 1761.73 1763.4 1765.08 1766.75 1768.43 1770.11 1771.74 1773.24 1774.67 1776.1 1777.53 1778.96 1780.38 1781.81 1783.21 1784.6 1785.66 1786.13 1786.6 1787.07 1787.54 1788.01 1788.48 1788.95 1789.42 1789.89 1790.36 1790.82 1791.17 1791.31 1791.34 1791.38 1791.41 1791.33 1791.18 1791.02 1790.86 1790.71 1790.55 1790.39 1790.24 1790.08 1790.36 1790.93 1791.12 1791.17 1791.22 1791.34 1791.6 1791.86 1792.12 1792.39 1792.65 1793.19 1793.84 1794.49 1795.14 1795.79 1796.44 1797.09 1797.74 1798.38 1798.63 1798.92 1799.19 1799.43 1799.68 1799.93 1800.18 1800.43 1800.68 1800.95 1801.52 1801.15 1798.65 1796.16 1793.7 1791.23 1788.75 1786.27 1783.62 1780.95 1778.29 1775.63 1772.96 1770.31 1767.69 1764.69 1761.23 1758.13 1755.17 1752.2 1749.23 1746.27 1743.3 1740.33 1737.59 1734.85 1732.95
1753.83 1757.85 1760.73 1763.62 1766.5 1769.43 1772.41 1775.39 1778.37 1781.38 1784.42 1787.57 1790.87 1794.23 1797.57 1798.84 1797.27 1795.7 1794.13 1792.57 1791.04 1789.51 1788.15 1788.61 1788.77 1788.93 1789.09 1789.08 1791.07 1793.85 1796.83 1799.48 1802.02 1804.71 1807.33 1810.43 1813.64 1815.04 1816.23 1817.42 1818.62 1819.81 1821.0 1822.77 1824.75 1831.07 1837.85 1843.55 1846.01 1847.8 1849.32 1851.43 1853.53 1855.64 1857.74 1859.85 1862.01 1864.26 1866.5 1869.17 1871.83 1872.65 1873.32 1874.04 1874.8 1875.8 1877.39 1878.99 1880.38 1881.48 1882.58 1883.69 1884.79 1885.9 1887.0 1888.01 1888.94 1889.92 1892.37 1893.07 1893.56 1894.6 1895.57 1896.49 1897.41 1898.33 1899.56 1901.24 1902.92 1904.6 1906.28 1907.96 1909.63 1911.29 1912.95 1914.66 1916.46 1918.26 1920.06 1921.85 1923.65 1925.45 1927.25 1928.9 1930.56 1932.69 1935.16 1937.6 1940.03 1942.54 1945.09 1947.64 1950.19 1952.08 1953.4 1954.72 1955.91 1957.33 1958.99 1958.9 1957.39 1955.91 1954.42 1952.94 1951.34 1949.64 1947.77 1945.86 1943.91 1941.91 1939.89 1937.9 1936.05 1934.26 1932.47 1930.69 1928.9 1927.11 1925.32 1923.53 1921.74 1920.02 1918.3 1916.54 1914.74 1912.94 1911.14 1909.34 1907.54 1905.62 1903.6 1901.58 1899.56 1897.54 1895.52 1893.49 1891.55 1889.87 1888.19 1886.52 1884.63 1882.52 1880.41 1878.3 1876.19 1874.08 1871.97 1869.95 1868.02 1866.09 1864.15 1862.22 1860.29 1858.35 1856.42 1854.41 1852.33 1850.74 1849.18 1847.61 1846.05 1844.49 1842.93 1841.37 1839.81 1838.61 1837.72 1836.75 1835.4 1834.06 1832.71 1831.37 1830.03 1828.68 1827.55 1826.6 1825.66 1824.71 1823.76 1822.82 1821.87 1820.92 1819.74 1818.76 1817.94 1817.12 1816.3 1815.48 1814.52 1813.45 1811.88 1809.95 1806.93 1804.14 1801.69 1799.2 1796.71 1794.22 1791.74 1789.01 1785.94 1782.88 1779.68 1776.47 1773.26 1770.05 1766.84 1763.63 1760.36 1757.37 1755.6 1753.81 1751.46 1749.12 1746.77 1744.32 1742.2 1740.09 1737.98 1735.79 1733.61 1731.5 1729.24 1726.63 1723.76 1722.85 1719.37 1716.08 1712.8 1713.14 1715.2 1717.17 1718.65 1720.11 1721.57 1723.32 1725.71 1728.18 1730.74 1733.31 1735.87 1738.43 1740.99 1743.55 1746.11 1748.67 1750.85 1752.52 1754.2 1755.88 1757.55 1759.23 1760.9 1762.58 1764.25 1765.93 1767.6 1769.28 1770.96 1772.61 1774.1 1775.53 1776.96 1778.39 1779.81 1781.24 1782.66 1784.08 1785.47 1786.87 1788.1 1788.57 1789.04 1789.51 1789.98 1790.45 1790.92 1791.39 1791.86 1792.33 1792.8 1793.26 1793.6 1793.82 1793.9 1793.93 1793.97 1794.0 1794.03 1794.07 1794.01 1793.85 1793.7 1793.54 1793.39 1793.23 1793.14 1793.7 1793.88 1793.94 1794.05 1794.31 1794.58 1794.84 1795.1 1795.36 1795.63 1796.18 1796.83 1797.48 1798.13 1798.78 1799.43 1800.07 1800.71 1801.35 1801.6 1801.71 1801.95 1802.32 1802.59 1802.85 1803.1 1803.35 1803.6 1803.85 1804.2 1802.42 1800.03 1797.28 1794.72 1792.26 1789.78 1787.3 1784.64 1781.92 1779.21 1776.49 1773.78 1771.09 1768.42 1765.77 1762.72 1759.63 1756.66 1753.7 1750.73 1747.77 1744.8 1741.83 1738.87 1736.07 1734.21
1753.25 1756.24 1759.13 1762.01 1764.9 1767.82 1770.8 1773.78 1776.77 1779.75 1782.77 1785.8 1788.95 1792.17 1795.09 1793.65 1792.43 1790.81 1789.18 1787.56 1785.93 1784.31 1782.68 1782.11 1782.8 1783.49 1784.61 1786.03 1788.22 1790.51 1793.91 1796.75 1799.66 1802.41 1805.04 1807.45 1808.65 1809.84 1811.03 1812.22 1813.42 1814.61 1815.8 1817.0 1820.1 1826.82 1833.5 1840.14 1843.92 1845.62 1847.04 1849.14 1851.25 1853.35 1855.46 1857.56 1859.56 1861.64 1863.73 1865.65 1867.61 1869.48 1870.19 1870.89 1871.62 1872.38 1873.79 1875.38 1876.76 1877.86 1878.97 1880.07 1881.18 1882.28 1883.24 1884.17 1885.1 1885.88 1888.29 1888.64 1889.92 1890.96 1891.99 1892.92 1893.84 1894.76 1896.01 1897.69 1899.36 1901.04 1902.72 1904.4 1906.08 1907.76 1909.44 1911.17 1912.97 1914.77 1916.56 1918.36 1920.16 1921.96 1923.76 1925.56 1927.43 1929.95 1932.46 1934.98 1937.45 1939.89 1942.37 1944.92 1947.47 1949.33 1950.65 1951.87 1953.39 1955.05 1956.7 1957.74 1957.15 1956.01 1954.57 1953.22 1951.69 1950.4 1948.54 1946.73 1945.01 1943.03 1941.01 1939.03 1937.21 1935.43 1933.64 1931.85 1930.06 1928.27 1926.48 1924.69 1922.9 1921.1 1919.3 1917.5 1915.7 1913.91 1912.1 1910.31 1908.51 1906.58 1904.56 1902.54 1900.52 1898.5 1896.47 1894.47 1892.79 1891.11 1889.43 1887.76 1886.09 1884.16 1882.05 1879.94 1877.83 1875.72 1873.61 1871.6 1869.67 1867.73 1865.8 1863.87 1861.93 1860.0 1858.07 1856.14 1854.52 1853.07 1851.55 1849.98 1848.42 1846.86 1845.3 1843.73 1842.17 1840.99 1840.02 1838.68 1837.33 1835.99 1834.65 1833.3 1831.96 1830.61 1829.49 1828.54 1827.6 1826.65 1825.7 1824.76 1823.81 1822.86 1821.92 1820.94 1820.09 1819.02 1817.95 1816.88 1815.8 1814.54 1812.63 1810.71 1807.79 1804.77 1802.02 1799.56 1797.07 1794.58 1792.07 1789.0 1785.93 1782.86 1779.69 1776.48 1773.27 1770.06 1766.85 1763.95 1762.17 1760.43 1758.88 1756.53 1754.07 1751.56 1749.06 1746.55 1744.22 1742.11 1739.93 1737.95 1735.69 1733.84 1731.05 1728.18 1725.34 1723.98 1721.44 1718.38 1715.09 1714.84 1716.98 1719.08 1721.05 1722.53 1723.99 1725.45 1727.84 1730.32 1732.88 1735.44 1738.0 1740.56 1743.13 1745.69 1748.07 1750.3 1752.53 1754.76 1756.73 1758.4 1760.08 1761.75 1763.43 1765.1 1766.78 1768.46 1770.13 1771.81 1773.47 1774.96 1776.39 1777.82 1779.25 1780.67 1782.1 1783.52 1784.94 1786.35 1787.74 1789.15 1790.55 1791.02 1791.49 1791.96 1792.43 1792.9 1793.36 1793.83 1794.3 1794.77 1795.23 1795.7 1796.03 1796.25 1796.46 1796.49 1796.52 1796.56 1796.59 1796.62 1796.66 1796.69 1796.72 1796.69 1796.54 1796.38 1796.22 1796.48 1796.64 1796.77 1797.03 1797.29 1797.55 1797.82 1798.08 1798.34 1798.6 1799.17 1799.82 1800.47 1801.11 1801.76 1802.41 1803.05 1803.69 1804.33 1804.56 1804.67 1804.78 1804.96 1805.41 1805.73 1806.0 1806.26 1806.51 1806.76 1806.49 1804.04 1801.29 1798.53 1795.78 1793.28 1790.81 1788.33 1785.66 1782.95 1780.23 1777.52 1774.8 1772.09 1769.37 1766.66 1763.99 1761.01 1758.05 1755.08 1752.12 1749.15 1746.19 1743.22 1740.26 1737.3 1735.57
1751.75 1754.64 1757.52 1760.41 1763.29 1766.22 1769.2 1772.18 1775.16 1778.14 1781.13 1784.16 1787.18 1790.32 1789.45 1788.04 1786.79 1785.43 1784.28 1783.12 1781.49 1779.87 1778.24 1778.05 1778.65 1780.45 1782.18 1783.6 1785.03 1787.29 1789.88 1793.14 1796.55 1799.66 1802.28 1802.61 1802.94 1803.86 1805.11 1806.36 1807.61 1808.86 1810.11 1811.36 1814.62 1821.1 1827.58 1833.73 1839.87 1843.4 1844.75 1846.86 1848.96 1851.07 1853.05 1855.0 1856.97 1859.14 1861.3 1863.53 1865.47 1866.38 1867.06 1867.76 1868.47 1869.2 1870.18 1871.77 1873.14 1874.24 1875.35 1876.45 1877.53 1878.46 1879.39 1880.33 1881.26 1881.92 1883.62 1884.79 1886.06 1887.32 1888.36 1889.34 1890.26 1891.18 1892.45 1894.13 1895.81 1897.49 1899.17 1900.84 1902.52 1904.2 1905.73 1907.36 1909.14 1910.97 1912.81 1914.66 1916.51 1918.32 1920.12 1921.93 1924.42 1927.03 1929.64 1932.23 1934.74 1937.26 1939.74 1942.2 1944.75 1946.59 1947.84 1949.45 1951.11 1952.76 1954.4 1956.48 1955.89 1954.54 1954.8 1953.51 1952.21 1951.13 1949.34 1947.61 1945.88 1944.12 1942.12 1940.17 1938.38 1936.59 1934.8 1933.01 1931.22 1929.23 1927.22 1925.27 1923.7 1922.07 1920.27 1918.47 1916.67 1914.87 1913.07 1911.27 1909.47 1907.54 1905.52 1903.5 1901.48 1899.45 1897.43 1895.71 1894.03 1892.34 1890.67 1889.0 1887.33 1885.66 1883.69 1881.58 1879.47 1877.37 1875.26 1873.25 1871.32 1869.38 1867.45 1865.52 1863.58 1861.65 1859.76 1857.93 1856.32 1854.87 1853.43 1851.98 1850.53 1849.08 1847.64 1846.1 1844.54 1843.3 1841.96 1840.61 1839.27 1837.92 1836.58 1835.23 1833.89 1832.55 1831.43 1830.49 1829.54 1828.59 1827.65 1826.7 1825.75 1824.81 1823.77 1822.45 1821.34 1820.27 1819.19 1818.11 1817.04 1815.31 1813.39 1811.48 1808.65 1805.63 1802.61 1799.91 1797.42 1794.94 1792.05 1788.98 1785.92 1782.85 1779.7 1776.49 1773.28 1770.77 1768.9 1767.08 1765.27 1763.45 1761.3 1758.9 1756.44 1753.86 1751.34 1748.81 1746.29 1744.2 1742.33 1740.28 1738.34 1735.47 1732.96 1729.92 1726.79 1724.58 1722.82 1719.88 1716.93 1716.53 1718.68 1720.81 1722.95 1724.93 1726.41 1727.87 1729.97 1732.46 1735.02 1737.58 1740.14 1742.7 1745.21 1747.44 1749.66 1751.89 1754.12 1756.35 1758.58 1760.81 1762.6 1764.28 1765.96 1767.63 1769.31 1770.98 1772.66 1774.33 1775.82 1777.26 1778.68 1780.1 1781.53 1782.95 1784.38 1785.8 1787.22 1788.61 1790.02 1791.43 1792.83 1793.46 1793.93 1794.4 1794.87 1795.33 1795.8 1796.27 1796.74 1797.2 1797.67 1798.14 1798.46 1798.69 1798.91 1799.05 1799.08 1799.11 1799.15 1799.18 1799.21 1799.25 1799.28 1799.31 1799.35 1799.38 1799.37 1799.26 1799.48 1799.74 1800.01 1800.27 1800.53 1800.79 1801.06 1801.32 1801.58 1802.16 1802.81 1803.45 1804.1 1804.75 1805.39 1806.03 1806.67 1807.31 1807.52 1807.63 1807.74 1807.86 1807.97 1808.42 1808.86 1809.13 1809.4 1809.67 1808.04 1805.29 1802.54 1799.78 1797.03 1794.3 1791.84 1789.36 1786.69 1783.97 1781.26 1778.54 1775.83 1773.11 1770.5 1767.98 1765.47 1761.93 1758.96 1756.0 1753.03 1750.07 1747.1 1744.14 1741.18 1738.22 1736.69
1750.15 1753.03 1755.91 1758.8 1761.68 1764.61 1767.59 1770.58 1773.56 1776.54 1779.52 1782.52 1785.54 1784.93 1783.64 1782.31 1780.97 1779.56 1778.44 1777.22 1776.1 1775.16 1773.8 1773.28 1774.23 1776.53 1778.83 1781.13 1782.6 1784.03 1786.3 1789.49 1792.37 1795.78 1798.13 1798.15 1798.96 1799.77 1800.59 1801.14 1801.62 1801.99 1803.03 1804.28 1808.31 1814.52 1820.66 1826.8 1832.85 1838.6 1842.52 1844.57 1846.53 1848.46 1850.36 1852.3 1854.34 1856.7 1859.07 1861.32 1862.6 1863.29 1863.97 1864.65 1865.34 1866.04 1866.78 1868.17 1869.52 1870.63 1871.73 1872.75 1873.69 1874.62 1875.55 1876.48 1877.41 1877.96 1879.48 1880.94 1882.21 1883.49 1884.72 1885.75 1886.69 1887.61 1888.9 1890.57 1892.25 1893.93 1895.61 1897.29 1898.9 1900.42 1901.95 1903.58 1905.34 1907.11 1908.93 1910.76 1912.6 1914.45 1916.3 1918.63 1920.98 1923.67 1926.35 1929.03 1931.71 1934.34 1936.95 1939.54 1942.03 1943.86 1945.51 1947.12 1948.74 1950.36 1951.98 1955.21 1953.27 1951.19 1951.65 1953.44 1952.98 1951.87 1950.21 1948.48 1946.75 1945.03 1943.24 1941.33 1939.54 1937.69 1935.68 1933.66 1931.65 1929.63 1927.62 1925.88 1924.32 1922.84 1921.23 1919.43 1917.63 1915.83 1914.03 1912.23 1910.43 1908.5 1906.48 1904.46 1902.43 1900.41 1898.63 1896.95 1895.26 1893.58 1891.91 1890.24 1888.57 1886.9 1885.23 1883.23 1881.12 1879.01 1876.9 1874.9 1872.96 1871.03 1869.1 1867.16 1865.23 1863.38 1861.54 1859.71 1858.11 1856.67 1855.22 1853.77 1852.33 1850.88 1849.44 1847.99 1846.54 1845.22 1843.89 1842.54 1841.2 1839.86 1838.51 1837.17 1835.82 1834.48 1833.38 1832.43 1831.48 1830.54 1829.59 1828.64 1827.7 1826.62 1825.29 1823.94 1822.66 1821.54 1820.44 1819.35 1818.0 1816.08 1814.16 1812.24 1809.52 1806.49 1803.47 1800.45 1797.78 1795.11 1792.04 1788.97 1785.9 1782.83 1780.05 1777.68 1775.31 1773.01 1770.96 1769.14 1767.32 1765.5 1763.34 1760.94 1758.55 1756.15 1753.76 1751.37 1748.97 1746.72 1744.88 1742.76 1740.25 1737.62 1734.49 1731.37 1728.34 1725.18 1724.16 1721.3 1718.87 1718.13 1720.32 1722.5 1724.65 1726.79 1728.81 1730.28 1732.1 1734.59 1737.16 1739.72 1742.28 1744.57 1746.8 1749.03 1751.25 1753.48 1755.71 1757.94 1760.17 1762.39 1764.62 1766.81 1768.48 1770.16 1771.83 1773.51 1775.19 1776.69 1778.11 1779.54 1780.96 1782.39 1783.81 1785.23 1786.66 1788.08 1789.48 1790.89 1792.3 1793.7 1795.11 1795.9 1796.37 1796.84 1797.31 1797.77 1798.24 1798.71 1799.17 1799.64 1800.11 1800.57 1800.89 1801.12 1801.34 1801.56 1801.64 1801.67 1801.7 1801.74 1801.77 1801.81 1801.84 1801.87 1801.91 1801.94 1801.97 1802.02 1802.37 1802.72 1802.98 1803.25 1803.51 1803.77 1804.03 1804.3 1804.56 1805.14 1805.79 1806.44 1807.09 1807.73 1808.36 1809.01 1809.65 1810.28 1810.48 1810.59 1810.71 1810.82 1810.93 1811.04 1811.43 1811.88 1812.27 1812.54 1809.72 1806.79 1803.85 1801.03 1798.28 1795.53 1792.86 1790.39 1787.71 1784.99 1782.28 1779.56 1777.01 1774.49 1771.98 1769.46 1766.78 1762.91 1759.88 1756.91 1753.95 1750.98 1748.02 1745.05 1742.09 1739.17 1737.55
1748.54 1751.42 1754.31 1757.19 1760.08 1763.01 1765.99 1768.97 1771.95 1774.94 1777.92 1780.86 1780.24 1778.88 1777.75 1776.61 1775.17 1773.84 1772.47 1771.21 1770.1 1768.99 1767.92 1768.01 1770.31 1772.61 1774.91 1777.21 1779.52 1781.6 1783.03 1785.3 1788.5 1791.6 1793.27 1793.16 1793.05 1792.94 1793.08 1793.9 1794.71 1795.52 1796.33 1797.15 1801.44 1807.57 1813.71 1819.53 1825.28 1831.29 1836.95 1841.73 1843.63 1845.6 1847.64 1849.68 1851.85 1854.11 1856.6 1858.86 1859.46 1860.16 1860.86 1861.55 1862.24 1862.92 1863.62 1864.56 1865.91 1867.01 1867.98 1868.91 1869.84 1870.78 1871.71 1872.64 1873.57 1874.02 1875.38 1876.76 1878.3 1879.64 1880.92 1882.11 1883.11 1884.03 1885.34 1887.02 1888.7 1890.38 1892.05 1893.59 1895.11 1896.64 1898.16 1899.8 1901.56 1903.32 1905.08 1906.9 1908.72 1910.55 1912.65 1915.48 1917.76 1920.04 1922.47 1925.15 1927.83 1930.52 1933.2 1935.88 1938.56 1940.7 1942.73 1944.71 1946.33 1947.95 1949.57 1951.57 1950.12 1947.83 1948.26 1950.52 1952.96 1952.79 1951.08 1949.35 1947.63 1945.92 1944.25 1942.12 1940.1 1938.09 1936.07 1934.06 1932.04 1930.03 1928.17 1926.5 1924.94 1923.46 1921.98 1920.39 1918.59 1916.8 1915.0 1913.2 1911.4 1909.46 1907.44 1905.41 1903.39 1901.55 1899.87 1898.19 1896.5 1894.82 1893.14 1891.47 1889.8 1888.13 1886.46 1884.79 1882.76 1880.65 1878.54 1876.55 1874.61 1872.68 1870.75 1868.83 1866.99 1865.16 1863.33 1861.5 1859.91 1858.46 1857.02 1855.57 1854.12 1852.68 1851.23 1849.79 1848.3 1846.99 1845.78 1844.48 1843.13 1841.79 1840.44 1839.1 1837.76 1836.41 1835.32 1834.37 1833.43 1832.48 1831.53 1830.58 1829.47 1828.13 1826.8 1825.46 1824.09 1822.86 1821.75 1820.64 1818.79 1816.86 1814.93 1813.0 1810.38 1807.36 1804.4 1801.44 1798.49 1795.69 1792.94 1790.21 1787.47 1784.73 1782.24 1779.86 1777.54 1775.25 1773.01 1771.19 1769.38 1767.56 1765.38 1762.98 1760.59 1758.19 1755.8 1753.41 1751.0 1748.33 1747.55 1745.32 1742.28 1739.47 1736.34 1733.05 1729.75 1726.46 1725.64 1723.31 1720.88 1719.73 1721.92 1724.1 1726.28 1728.47 1730.62 1732.7 1734.23 1736.73 1739.29 1741.7 1743.93 1746.16 1748.39 1750.61 1752.84 1755.07 1757.3 1759.53 1761.76 1763.98 1766.21 1768.44 1770.67 1772.69 1774.36 1776.04 1777.55 1778.97 1780.39 1781.82 1783.24 1784.67 1786.09 1787.52 1788.94 1790.35 1791.76 1793.16 1794.57 1795.99 1797.4 1798.34 1798.81 1799.28 1799.74 1800.21 1800.68 1801.14 1801.61 1802.08 1802.54 1803.01 1803.32 1803.55 1803.77 1803.99 1804.2 1804.23 1804.26 1804.3 1804.33 1804.36 1804.4 1804.43 1804.46 1804.5 1804.54 1804.6 1804.97 1805.37 1805.77 1806.18 1806.48 1806.75 1807.01 1807.27 1807.53 1808.13 1808.78 1809.42 1810.06 1810.7 1811.34 1811.98 1812.62 1813.26 1813.44 1813.56 1813.67 1813.78 1813.89 1814.01 1814.12 1814.44 1814.89 1814.31 1811.41 1808.52 1805.59 1802.66 1799.72 1796.79 1794.03 1791.42 1788.73 1786.04 1783.52 1781.01 1778.49 1775.97 1773.45 1770.94 1767.98 1764.04 1760.79 1757.83 1754.86 1751.9 1748.93 1745.97 1742.99 1740.11 1738.4
